ncols        404
nrows        75
xllcorner    2.54166657655
yllcorner    50.6999999573
cellsize     0.008333333300
NODATA_value -9999
-9999 -9999 -9999 -9999 -9999 -9999 -9999 -9999 -9999 -9999 -9999 -9999 -9999 -9999 -9999 -9999 -9999 -9999 -9999 -9999 -9999 -9999 -9999 -9999 -9999 -9999 -9999 -9999 -9999 -9999 -9999 -9999 -9999 -9999 -9999 -9999 -9999 -9999 -9999 -9999 -9999 -9999 -9999 -9999 -9999 -9999 -9999 -9999 -9999 -9999 -9999 -9999 -9999 -9999 -9999 -9999 -9999 -9999 -9999 -9999 -9999 -9999 -9999 -9999 -9999 -9999 -9999 -9999 -9999 -9999 -9999 3 2 2 1 1 3 2 1 1 1 1 1 1 1 1 1 2 2 2 2 2 2 2 2 2 2 2 1 2 2 1 1 2 2 2 2 2 2 2 1 2 2 2 2 2 1 1 1 1 1 1 2 2 2 2 2 1 2 2 2 1 1 1 1 1 1 1 1 1 1 1 1 1 1 1 1 1 1 1 1 1 1 1 1 1 1 1 1 2 2 2 1 1 1 1 1 1 2 1 1 1 1 1 1 1 2 1 1 1 1 1 1 1 1 1 1 1 1 2 2 2 2 2 2 2 2 2 2 1 1 1 1 1 1 1 1 1 6 6 6 5 4 4 4 4 4 4 3 3 3 3 4 5 6 7 8 8 9 10 11 12 13 14 15 16 17 18 19 20 21 22 23 23 23 23 26 26 25 26 26 26 26 23 23 23 26 23 23 23 23 23 23 23 23 23 23 23 25 27 25 25 25 25 24 23 23 23 24 24 24 23 23 23 23 23 23 22 22 23 23 23 23 23 23 23 23 23 23 23 23 23 23 23 24 25 26 27 27 28 28 29 29 30 31 32 34 35 35 35 35 35 35 35 35 35 35 35 35 35 34 33 32 32 31 31 30 30 30 30 30 29 28 28 28 29 28 27 26 28 27 26 27 27 28 28 28 27 26 26 27 26 26 27 28 28 27 27 27 28 29 29 29 29 29 29 29 29 29 29 29 29 29 29 29 29 29 30 30 30 30 30 30 30 30 30 30 30 30 30 30 30 30 31
-9999 -9999 -9999 -9999 -9999 -9999 -9999 -9999 -9999 -9999 -9999 -9999 -9999 -9999 -9999 -9999 -9999 -9999 -9999 -9999 -9999 -9999 -9999 -9999 -9999 -9999 -9999 -9999 -9999 -9999 -9999 -9999 -9999 -9999 -9999 -9999 -9999 -9999 -9999 -9999 -9999 -9999 -9999 -9999 -9999 -9999 -9999 -9999 -9999 -9999 -9999 -9999 -9999 -9999 -9999 -9999 -9999 -9999 -9999 -9999 -9999 -9999 -9999 -9999 -9999 -9999 -9999 2 3 4 3 2 2 2 1 1 2 2 1 1 1 1 1 1 1 1 1 1 2 2 2 2 2 2 2 2 2 2 1 1 1 1 1 1 1 1 2 1 1 1 1 1 1 2 2 2 1 1 1 1 1 1 1 1 1 1 1 1 2 2 1 1 1 1 1 1 1 1 1 1 1 1 1 1 1 1 1 1 1 1 1 1 1 1 1 1 1 1 1 1 1 1 1 1 1 1 1 2 1 1 1 1 1 1 1 1 1 1 1 1 1 1 1 1 1 1 1 1 1 2 2 2 2 2 2 2 2 2 1 1 1 1 1 1 1 1 1 1 4 6 6 6 4 4 5 4 4 4 4 4 3 3 3 4 4 5 6 7 7 8 8 10 11 12 12 13 14 16 16 17 18 20 21 22 23 24 26 28 28 28 28 28 28 26 25 24 24 24 23 23 23 23 23 23 23 22 23 23 23 23 23 23 22 22 22 22 22 22 22 23 23 22 22 21 21 21 21 21 21 22 22 22 22 22 22 22 23 23 23 23 23 23 23 23 23 24 24 25 26 26 27 28 29 30 32 33 33 34 35 37 36 36 35 35 35 35 36 36 35 35 35 34 33 32 32 31 30 30 30 30 30 30 29 29 30 30 29 29 28 29 28 28 28 28 29 29 29 29 28 28 28 27 27 28 28 28 28 28 28 28 29 30 29 29 29 29 29 29 29 29 29 29 29 29 29 30 30 30 30 30 30 30 30 30 30 30 30 30 30 30 30 30 30 30
-9999 -9999 -9999 -9999 -9999 -9999 -9999 -9999 -9999 -9999 -9999 -9999 -9999 -9999 -9999 -9999 -9999 -9999 -9999 -9999 -9999 -9999 -9999 -9999 -9999 -9999 -9999 -9999 -9999 -9999 -9999 -9999 -9999 -9999 -9999 -9999 -9999 -9999 -9999 -9999 -9999 -9999 -9999 -9999 -9999 -9999 -9999 -9999 -9999 -9999 -9999 -9999 -9999 -9999 -9999 -9999 -9999 -9999 -9999 -9999 -9999 -9999 -9999 -9999 1 2 2 1 1 1 1 1 1 2 2 2 2 2 1 1 1 1 1 1 1 1 1 1 1 1 1 1 1 1 1 1 1 1 1 1 1 1 1 1 1 1 1 1 1 1 1 2 2 2 2 2 1 1 1 1 1 1 1 1 1 1 1 1 2 2 2 1 1 1 1 1 1 1 1 1 2 2 2 1 1 1 1 1 1 1 1 1 1 1 1 1 1 1 1 1 1 1 1 1 1 1 1 2 2 1 1 1 1 1 1 1 1 1 1 1 1 1 1 1 1 1 1 1 1 1 1 2 2 2 2 1 1 1 1 1 1 1 1 1 1 1 1 1 1 4 6 6 4 5 5 4 4 4 4 4 3 3 3 3 3 4 4 6 6 7 8 8 9 10 11 12 13 13 15 15 16 17 19 20 21 23 24 25 26 28 28 28 27 25 24 23 23 23 23 23 23 22 22 23 22 22 21 21 21 21 21 21 21 20 20 20 20 20 20 20 20 19 19 18 18 18 18 18 19 19 19 20 20 21 21 21 22 23 22 22 22 23 23 23 23 23 23 24 25 26 27 28 28 29 31 33 34 36 37 38 38 38 38 37 37 37 37 37 37 36 36 35 34 34 33 33 31 31 31 31 31 30 30 30 30 30 30 29 29 29 29 29 29 29 29 29 29 29 29 29 29 28 28 29 29 29 29 29 29 30 30 30 30 30 30 30 30 30 30 30 30 30 30 30 30 30 30 30 30 30 30 30 30 30 30 30 30 30 30 30 30 30 30 30
-9999 -9999 -9999 -9999 -9999 -9999 -9999 -9999 -9999 -9999 -9999 -9999 -9999 -9999 -9999 -9999 -9999 -9999 -9999 -9999 -9999 -9999 -9999 -9999 -9999 -9999 -9999 -9999 -9999 -9999 -9999 -9999 -9999 -9999 -9999 -9999 -9999 -9999 -9999 -9999 -9999 -9999 -9999 -9999 -9999 -9999 -9999 -9999 -9999 -9999 -9999 -9999 -9999 -9999 -9999 -9999 -9999 -9999 -9999 -9999 -9999 -9999 4 1 1 1 1 1 1 1 1 1 1 1 2 2 2 2 1 1 1 1 1 1 1 1 1 1 1 1 1 1 1 1 1 1 1 1 1 1 1 1 1 1 1 1 1 1 1 1 1 1 1 1 1 1 1 1 1 1 1 1 1 1 1 1 1 1 1 2 2 2 2 2 2 2 2 2 2 2 2 2 2 2 1 2 2 1 1 2 2 2 2 1 1 1 1 1 1 1 1 1 1 1 1 1 1 1 2 2 2 1 1 1 1 1 1 1 1 1 1 1 1 1 1 1 1 1 1 1 1 1 1 1 1 1 1 1 1 1 1 1 1 1 1 1 1 1 1 1 1 1 2 3 4 5 4 4 4 4 3 3 3 3 3 3 3 4 5 7 7 7 8 9 9 10 11 12 13 13 14 15 16 17 18 20 21 23 23 23 23 27 24 23 23 21 21 20 21 21 19 19 20 20 19 20 19 20 19 19 19 19 19 19 19 19 19 18 18 18 18 18 18 18 18 18 18 18 18 18 18 19 20 20 20 20 20 22 22 21 22 22 22 23 23 23 23 23 24 25 26 27 28 29 31 33 34 36 38 38 38 39 38 38 38 38 39 39 38 37 36 36 35 35 34 34 33 33 32 32 32 32 32 31 31 30 30 30 30 30 30 29 29 29 30 30 30 30 30 29 29 29 29 29 29 29 30 30 30 30 30 30 30 30 30 30 30 30 30 30 30 30 30 30 30 30 30 30 30 30 30 30 30 30 30 30 30 30 30 30 30 30 30 30
-9999 -9999 -9999 -9999 -9999 -9999 -9999 -9999 -9999 -9999 -9999 -9999 -9999 -9999 -9999 -9999 -9999 -9999 -9999 -9999 -9999 -9999 -9999 -9999 -9999 -9999 -9999 -9999 -9999 -9999 -9999 -9999 -9999 -9999 -9999 -9999 -9999 -9999 -9999 -9999 -9999 -9999 -9999 -9999 -9999 -9999 -9999 -9999 -9999 -9999 -9999 -9999 -9999 -9999 -9999 -9999 -9999 -9999 -9999 -9999 -9999 4 2 1 1 1 1 1 1 1 1 1 1 1 1 2 2 2 1 1 1 1 1 1 1 1 1 1 1 1 1 1 1 2 2 2 2 2 2 2 2 1 1 1 1 1 1 1 1 1 1 1 1 1 1 1 1 1 1 1 1 1 1 1 1 1 1 1 1 1 1 1 1 1 2 2 2 2 2 2 2 2 2 2 2 2 2 2 2 2 1 1 1 1 1 1 1 1 1 1 1 1 1 1 1 1 1 1 1 1 2 2 1 1 1 1 1 1 1 1 1 1 1 1 1 1 1 1 1 1 1 1 1 1 1 1 1 1 1 1 1 1 1 1 1 1 1 1 1 1 1 1 1 2 3 5 5 4 4 4 3 3 3 3 3 3 3 3 4 5 6 7 7 8 8 9 10 10 11 11 12 12 13 14 15 16 17 18 18 19 19 21 20 19 18 18 18 18 18 18 18 18 18 18 18 18 18 18 18 18 18 18 18 18 18 18 18 17 17 17 17 17 17 18 18 18 18 18 18 18 18 18 18 18 18 19 19 21 21 21 21 22 22 22 23 23 23 23 23 24 25 27 28 28 30 32 34 35 37 38 38 40 39 39 40 40 40 40 40 40 38 37 36 35 34 34 34 34 33 33 33 33 32 32 31 30 30 30 30 30 30 30 30 30 31 31 31 30 30 30 30 29 30 30 30 30 30 30 30 31 31 30 30 30 30 30 30 30 30 30 30 30 30 30 30 30 30 30 30 30 30 30 30 30 30 30 30 30 30 30 30 30 30 30
-9999 -9999 -9999 -9999 -9999 -9999 -9999 -9999 -9999 -9999 -9999 -9999 -9999 -9999 -9999 -9999 -9999 -9999 -9999 -9999 -9999 -9999 -9999 -9999 -9999 -9999 -9999 -9999 -9999 -9999 -9999 -9999 -9999 -9999 -9999 -9999 -9999 -9999 -9999 -9999 -9999 -9999 -9999 -9999 -9999 -9999 -9999 -9999 -9999 -9999 -9999 -9999 -9999 -9999 -9999 -9999 -9999 -9999 5 5 2 2 1 1 1 1 1 1 1 1 1 1 1 1 1 1 1 1 1 1 1 1 1 1 1 1 1 1 1 1 1 1 1 2 2 2 2 2 2 2 1 1 1 1 1 1 1 1 1 1 1 1 1 1 1 1 1 1 1 1 1 1 1 1 1 1 1 1 1 1 1 1 1 1 2 2 2 2 2 2 2 2 2 2 2 2 2 2 2 2 1 1 1 1 1 1 1 1 1 1 1 1 1 1 1 1 1 1 1 1 2 2 2 1 1 1 1 1 1 1 1 1 1 1 1 1 1 1 1 1 1 1 1 1 1 1 1 1 1 1 1 1 1 1 1 1 1 1 1 1 1 1 1 1 2 2 3 3 3 3 2 2 3 3 3 3 3 3 3 4 5 5 6 7 8 8 9 10 10 10 10 11 11 12 12 12 13 14 15 16 17 18 17 17 16 16 16 17 17 18 18 17 17 17 18 18 17 17 17 17 17 17 17 17 17 17 17 17 17 17 17 17 17 18 18 18 18 18 18 18 18 18 18 18 18 18 18 19 20 20 20 21 22 22 22 22 22 23 23 23 25 27 28 28 30 32 34 36 38 38 38 42 40 40 40 40 40 40 40 40 39 38 37 35 35 35 35 35 35 35 35 35 35 34 33 33 31 31 32 31 32 31 31 31 31 31 31 31 31 30 30 30 30 30 30 30 30 31 32 33 31 31 30 31 31 30 30 30 30 30 30 30 30 30 30 30 30 30 30 30 30 30 30 30 30 30 30 30 30 30 30 30 30 30
-9999 -9999 -9999 -9999 -9999 -9999 -9999 -9999 -9999 -9999 -9999 -9999 -9999 -9999 -9999 -9999 -9999 -9999 -9999 -9999 -9999 -9999 -9999 -9999 -9999 -9999 -9999 -9999 -9999 -9999 -9999 -9999 -9999 -9999 -9999 -9999 -9999 -9999 -9999 -9999 -9999 -9999 -9999 -9999 -9999 -9999 -9999 -9999 -9999 -9999 -9999 -9999 -9999 -9999 -9999 -9999 6 4 2 1 2 1 1 1 1 1 1 1 1 1 1 1 1 1 2 2 1 1 1 1 1 1 1 1 1 1 1 1 1 1 2 2 2 2 2 2 2 2 2 2 2 1 1 1 1 1 1 1 1 1 1 1 1 1 1 1 1 1 1 1 1 1 1 1 1 1 1 1 1 1 1 1 1 1 1 1 1 1 1 2 2 2 2 1 1 1 2 2 2 2 2 2 2 1 1 1 1 1 1 1 1 1 1 1 1 1 1 1 1 2 2 2 2 2 2 2 1 1 1 1 1 1 1 1 1 1 1 1 1 1 1 1 1 1 1 1 1 1 1 1 1 1 1 1 1 1 1 1 1 1 1 1 1 1 2 2 2 3 3 3 1 1 3 3 3 3 3 3 3 4 4 4 4 4 4 4 6 7 8 8 8 9 9 10 10 11 11 12 13 13 14 14 15 15 14 14 14 15 15 15 15 14 14 15 16 16 15 15 15 15 15 16 16 16 16 16 16 16 16 16 16 16 16 17 17 17 18 18 18 18 18 18 18 18 18 18 18 18 19 19 20 21 22 22 23 23 23 23 23 23 24 26 27 28 30 32 33 36 38 38 38 41 40 40 40 40 40 41 40 40 40 40 39 38 37 37 37 37 36 35 35 36 35 35 33 33 33 33 33 33 33 32 31 31 31 33 33 32 32 31 30 31 31 32 32 32 33 34 35 35 34 34 33 33 32 32 32 32 31 31 31 31 31 31 30 30 30 30 30 30 30 30 30 30 30 30 30 30 30 30 30 30 30 30
-9999 -9999 -9999 -9999 -9999 -9999 -9999 -9999 -9999 -9999 -9999 -9999 -9999 -9999 -9999 -9999 -9999 -9999 -9999 -9999 -9999 -9999 -9999 -9999 -9999 -9999 -9999 -9999 -9999 -9999 -9999 -9999 -9999 -9999 -9999 -9999 -9999 -9999 -9999 -9999 -9999 -9999 -9999 -9999 -9999 -9999 -9999 -9999 -9999 -9999 -9999 -9999 -9999 3 3 3 3 2 1 1 1 1 1 1 1 1 1 1 1 1 1 1 1 1 1 1 1 1 1 1 1 1 1 1 1 1 1 1 1 2 2 2 2 2 2 2 2 2 2 2 2 1 1 1 1 1 1 1 1 1 1 1 1 1 1 1 1 1 1 1 1 1 1 1 1 1 1 1 1 1 1 1 1 1 1 2 2 2 2 2 2 2 2 1 1 2 2 2 2 2 2 2 2 1 1 1 2 2 1 1 1 1 1 1 1 1 2 2 2 2 2 2 2 2 2 1 1 1 1 1 1 2 2 2 2 1 1 1 1 1 1 1 1 1 1 1 1 1 1 1 1 1 1 1 1 1 1 1 1 1 1 1 1 1 1 2 2 2 2 2 1 1 3 3 3 3 3 3 3 4 4 3 3 3 3 4 7 7 8 8 8 8 8 8 8 9 10 10 11 12 12 13 13 13 13 13 13 13 13 13 13 13 13 13 13 14 13 13 14 14 13 14 15 15 14 14 15 15 15 15 15 15 15 17 17 17 17 17 17 17 18 18 18 18 18 18 18 18 19 19 20 22 22 23 23 23 23 23 23 23 23 26 27 27 28 31 33 35 37 38 39 41 41 42 43 43 43 43 43 42 42 41 40 40 38 38 39 38 38 38 38 38 37 36 34 34 34 34 34 34 33 33 32 32 33 33 33 33 33 33 33 33 33 33 33 34 34 35 35 35 35 34 34 33 33 32 32 32 32 32 31 31 31 31 30 30 30 30 30 30 30 30 30 30 30 30 30 30 30 30 29 29 29 29
-9999 -9999 -9999 -9999 -9999 -9999 -9999 -9999 -9999 -9999 -9999 -9999 -9999 -9999 -9999 -9999 -9999 -9999 -9999 -9999 -9999 -9999 -9999 -9999 -9999 -9999 -9999 -9999 -9999 -9999 -9999 -9999 -9999 -9999 -9999 -9999 -9999 -9999 -9999 -9999 -9999 -9999 -9999 -9999 -9999 -9999 -9999 -9999 -9999 -9999 3 3 3 3 2 2 2 1 1 1 1 1 1 1 1 1 1 1 1 1 1 1 1 1 1 1 1 1 1 1 1 1 1 1 1 1 1 1 1 2 2 2 2 2 2 2 2 2 2 2 2 1 1 1 1 1 1 1 1 1 1 1 2 2 2 2 1 1 1 1 2 1 1 1 1 2 2 2 2 2 2 2 2 2 2 2 2 2 2 2 2 2 2 1 2 2 2 2 2 2 2 2 2 1 1 2 2 2 1 1 1 2 2 1 1 1 1 1 1 1 2 2 2 2 1 1 1 1 2 2 2 2 2 2 2 2 1 1 1 1 1 1 1 1 1 1 1 1 1 1 1 1 1 1 1 1 1 1 1 1 1 1 1 1 1 1 1 2 2 2 1 1 4 4 4 4 4 4 4 4 4 4 4 3 3 5 7 7 7 8 8 8 8 8 8 8 8 9 10 10 11 11 11 11 11 11 11 12 12 12 12 12 12 12 13 13 13 13 13 13 13 13 13 13 13 13 13 14 14 14 14 14 14 16 17 17 17 17 17 17 18 18 18 18 18 18 18 18 18 18 19 21 21 22 22 22 23 23 23 24 25 28 28 28 28 31 33 34 37 38 39 41 43 43 43 43 43 43 43 43 43 43 42 42 41 41 42 41 40 39 39 38 37 37 36 35 35 36 36 35 35 34 33 33 34 34 34 33 34 34 34 34 34 34 34 34 34 35 35 35 35 35 34 34 34 32 32 32 32 31 31 30 30 30 30 30 30 30 30 30 30 30 30 30 30 30 30 30 29 29 28 28 28 28
-9999 -9999 -9999 -9999 -9999 -9999 -9999 -9999 -9999 -9999 -9999 -9999 -9999 -9999 -9999 -9999 -9999 -9999 -9999 -9999 -9999 -9999 -9999 -9999 -9999 -9999 -9999 -9999 -9999 -9999 -9999 -9999 -9999 -9999 -9999 -9999 -9999 -9999 -9999 -9999 -9999 -9999 -9999 -9999 -9999 -9999 -9999 -9999 3 3 2 2 2 2 2 2 2 1 1 1 1 1 1 1 1 1 1 1 1 1 1 1 1 1 1 1 1 1 2 1 1 1 1 1 1 1 1 1 1 2 2 2 2 2 2 2 2 2 2 2 2 2 2 2 2 1 2 2 2 2 2 2 2 2 2 2 2 2 1 2 3 3 3 3 3 3 3 3 2 2 2 2 2 2 2 2 2 2 2 2 2 2 2 2 2 2 2 2 2 2 2 2 2 1 1 2 2 2 1 1 1 2 2 1 1 1 1 1 1 1 1 2 2 2 1 1 2 2 2 2 2 2 3 2 2 2 1 1 1 1 1 1 1 1 1 1 1 1 1 1 1 1 1 1 1 1 1 1 1 1 1 1 1 1 1 1 1 1 1 1 1 1 3 3 3 3 3 3 3 3 3 3 3 3 3 4 6 6 6 7 7 7 8 8 8 8 8 8 8 9 9 10 10 10 10 10 10 11 11 11 11 10 11 12 12 12 12 13 12 12 13 13 13 13 13 13 13 13 13 13 13 14 14 16 16 17 17 17 17 18 18 18 18 18 18 18 18 18 18 18 18 19 20 21 22 23 23 23 24 24 25 27 28 28 29 31 32 33 36 38 39 42 43 43 43 43 43 44 44 44 43 44 43 43 42 43 43 43 42 41 40 39 38 37 37 37 37 38 38 37 37 36 36 35 36 36 36 35 35 35 35 34 34 34 35 35 35 35 35 35 35 35 35 35 34 33 34 34 32 31 30 30 30 30 30 30 30 30 30 30 30 30 30 30 30 30 30 30 29 29 28 27 29 29
-9999 -9999 -9999 -9999 -9999 -9999 -9999 -9999 -9999 -9999 -9999 -9999 -9999 -9999 -9999 -9999 -9999 -9999 -9999 -9999 -9999 -9999 -9999 -9999 -9999 -9999 -9999 -9999 -9999 -9999 -9999 -9999 -9999 -9999 -9999 -9999 -9999 -9999 -9999 -9999 -9999 -9999 -9999 -9999 -9999 -9999 -9999 2 2 2 2 1 1 2 1 1 1 1 1 1 1 1 1 1 1 1 1 1 1 1 1 1 1 1 1 1 1 2 2 1 2 2 2 2 2 2 2 2 2 2 2 2 2 2 2 2 2 2 2 2 2 2 2 2 2 2 2 2 2 2 2 2 2 2 2 2 2 2 2 1 2 2 2 3 3 3 3 3 2 2 2 2 2 2 2 2 2 2 2 2 2 2 2 2 2 2 2 2 2 2 2 1 1 1 1 1 2 2 1 1 1 2 2 1 1 1 1 1 1 1 1 2 2 2 2 2 3 3 3 3 3 3 2 2 2 2 2 1 1 1 1 1 1 1 1 1 1 1 1 1 1 1 1 1 1 1 1 1 1 1 1 1 1 1 1 1 1 1 1 1 1 1 1 2 2 2 3 3 3 3 3 3 3 3 3 3 4 4 4 6 7 7 8 8 8 8 8 8 8 9 9 9 8 8 9 9 9 9 10 10 10 9 10 11 11 11 11 12 12 12 12 13 13 13 13 13 13 13 13 13 13 13 13 14 16 17 17 18 18 19 21 19 18 18 18 18 18 18 18 18 18 20 21 22 22 23 23 23 23 23 25 27 27 28 28 30 32 32 35 38 40 42 43 43 43 44 44 46 46 45 45 45 44 44 44 44 43 43 42 41 41 41 39 38 38 37 38 38 38 38 38 37 37 37 38 37 37 36 36 36 35 35 35 35 35 35 35 35 35 35 35 35 35 35 35 33 34 34 32 31 30 30 30 30 30 30 30 30 30 30 30 30 30 30 30 30 30 30 29 29 27 27 27 25
-9999 -9999 -9999 -9999 -9999 -9999 -9999 -9999 -9999 -9999 -9999 -9999 -9999 -9999 -9999 -9999 -9999 -9999 -9999 -9999 -9999 -9999 -9999 -9999 -9999 -9999 -9999 -9999 -9999 -9999 -9999 -9999 -9999 -9999 -9999 -9999 -9999 -9999 -9999 -9999 -9999 -9999 -9999 1 1 2 3 2 2 1 1 1 1 1 1 1 1 1 1 1 1 1 1 1 1 1 1 1 1 1 1 1 1 1 1 2 2 2 2 2 2 2 2 2 2 2 2 2 2 3 3 3 3 3 3 3 3 3 3 3 3 3 3 3 3 3 3 3 3 3 2 2 2 2 2 2 2 2 2 2 2 2 2 2 2 2 2 2 2 2 2 2 2 2 2 3 2 2 2 2 2 2 2 2 2 2 2 2 2 2 2 2 2 2 2 2 2 2 1 1 2 2 2 2 2 1 1 1 1 1 1 2 2 3 3 3 3 3 3 3 3 3 3 3 3 3 2 2 2 1 2 2 2 2 2 2 2 2 3 3 3 3 3 3 3 3 3 3 3 2 2 2 2 2 2 1 1 1 1 1 1 1 1 2 2 3 3 3 4 3 3 3 3 3 3 3 4 4 5 7 7 7 7 8 7 7 8 8 8 8 8 8 8 8 8 8 8 8 8 8 8 8 8 9 9 10 10 11 11 11 12 13 13 13 13 13 13 13 13 13 13 13 13 15 17 18 20 23 23 18 16 17 18 18 18 18 18 18 19 20 20 22 23 23 23 23 23 23 23 23 24 26 27 28 28 31 32 33 36 38 39 41 42 43 44 46 47 48 48 48 47 48 47 46 45 45 44 43 43 43 43 43 43 41 38 38 38 39 39 38 38 38 38 38 38 38 38 37 37 36 36 35 35 35 35 35 35 35 35 35 35 35 35 35 35 33 34 33 32 31 31 30 30 30 30 30 30 30 30 30 30 30 30 30 29 29 29 29 29 29 26 26 26 25
-9999 -9999 -9999 -9999 -9999 -9999 -9999 -9999 -9999 -9999 -9999 -9999 -9999 -9999 -9999 -9999 -9999 -9999 -9999 -9999 -9999 -9999 -9999 -9999 -9999 -9999 -9999 -9999 -9999 -9999 -9999 -9999 -9999 -9999 -9999 -9999 -9999 -9999 -9999 -9999 -9999 1 1 1 1 2 3 1 1 1 1 1 1 1 1 1 1 1 1 1 1 1 1 1 1 1 1 1 1 2 1 1 1 1 2 2 2 2 2 2 2 2 2 2 2 3 3 3 3 3 3 3 3 3 4 4 5 5 5 5 5 5 5 5 5 5 4 4 3 3 3 3 3 3 3 3 2 2 2 2 3 3 3 3 3 3 3 3 3 3 3 3 3 3 3 3 3 3 3 3 3 2 2 2 2 2 2 2 2 2 2 2 2 2 2 2 2 2 2 2 2 2 2 2 2 2 1 2 2 2 2 2 2 3 3 3 3 3 3 3 3 3 3 3 3 3 3 3 3 2 3 3 3 3 3 3 3 3 3 3 3 4 4 5 5 5 5 5 4 4 4 4 4 3 3 2 1 1 1 1 1 1 1 2 3 3 3 3 3 3 3 3 3 3 3 3 3 3 4 5 5 6 6 7 7 7 7 7 7 7 7 8 8 8 8 7 8 8 8 8 8 8 8 9 9 9 9 10 10 10 10 12 12 12 12 12 12 12 13 13 15 16 17 18 21 22 17 14 13 13 13 13 15 16 17 18 18 19 20 20 21 22 23 23 23 23 23 23 23 23 24 26 27 28 29 31 33 33 35 37 37 38 40 43 44 46 47 48 48 48 48 48 47 47 47 47 47 46 46 45 43 43 43 42 41 41 40 41 41 40 40 39 39 38 39 39 39 38 38 37 37 36 35 35 35 35 35 35 35 35 35 35 35 35 35 34 33 33 32 31 31 30 30 30 30 30 30 30 30 30 30 30 29 29 29 29 28 28 28 28 25 25 26 29
-9999 -9999 -9999 -9999 -9999 -9999 -9999 -9999 -9999 -9999 -9999 -9999 -9999 -9999 -9999 -9999 -9999 -9999 -9999 -9999 -9999 -9999 -9999 -9999 -9999 -9999 -9999 -9999 -9999 -9999 -9999 -9999 -9999 -9999 -9999 -9999 -9999 -9999 -9999 2 2 1 1 1 2 2 3 2 2 1 1 1 1 1 1 1 1 1 1 1 1 1 1 1 2 2 2 2 2 2 2 2 2 2 3 3 3 3 3 3 3 3 3 3 3 3 3 3 3 5 5 5 5 6 6 7 7 8 8 8 8 8 8 8 8 8 7 6 6 6 5 5 4 4 3 3 3 3 3 3 3 3 3 3 3 3 3 3 3 3 3 3 3 3 3 3 3 3 3 3 3 3 3 3 3 3 3 3 3 3 3 2 2 2 2 2 2 2 2 2 2 2 2 2 2 2 2 2 2 2 2 2 3 3 3 3 3 3 3 4 3 3 4 3 3 3 3 3 3 3 3 3 3 3 3 3 3 3 3 4 5 6 7 8 8 8 8 7 7 6 7 6 6 5 4 3 2 1 1 1 1 1 2 3 3 4 4 4 4 3 3 3 3 3 3 3 4 4 6 6 7 7 7 7 7 7 7 7 7 7 7 8 8 8 7 7 8 8 8 8 8 8 8 9 9 9 9 9 9 9 9 12 12 12 12 12 13 13 14 17 19 23 23 17 16 14 13 13 13 13 13 13 16 16 17 18 18 19 20 21 22 22 23 23 23 23 23 23 23 24 26 27 27 28 28 31 32 32 33 36 37 38 40 43 44 46 47 48 48 48 48 48 48 48 49 49 48 48 48 47 44 43 43 43 43 43 42 43 43 43 42 42 42 41 42 42 42 40 38 38 37 37 36 36 36 36 35 35 34 34 34 34 34 34 34 32 32 32 31 31 31 30 30 30 30 30 30 30 30 30 30 30 30 30 30 30 30 30 29 27 27 30 30 29
-9999 -9999 -9999 -9999 -9999 -9999 -9999 -9999 -9999 -9999 -9999 -9999 -9999 -9999 -9999 -9999 -9999 -9999 -9999 -9999 -9999 -9999 -9999 -9999 -9999 -9999 -9999 -9999 -9999 -9999 -9999 -9999 -9999 -9999 -9999 -9999 -9999 2 2 1 1 1 1 1 1 2 2 1 1 1 1 1 1 1 1 1 1 1 1 1 1 2 2 2 2 2 2 2 2 2 3 3 4 5 6 6 6 6 3 3 3 3 3 4 4 4 4 4 5 7 7 7 7 7 7 8 8 9 9 9 10 10 10 11 8 8 7 8 8 8 8 8 8 7 6 5 4 4 4 4 3 3 3 3 3 4 4 4 4 3 3 3 4 3 3 3 3 3 3 3 3 3 3 3 3 3 3 3 3 3 3 3 3 3 2 2 2 2 2 2 2 2 2 3 3 3 3 3 3 2 2 3 3 3 3 3 3 3 3 4 4 6 7 5 6 5 5 5 5 5 6 6 6 6 7 6 6 5 6 7 7 8 8 9 9 9 9 8 8 8 8 8 8 8 6 3 1 1 1 1 2 3 5 5 5 5 5 6 6 5 5 4 4 5 5 5 5 6 7 7 7 7 7 7 7 7 7 7 6 6 6 8 8 6 6 6 8 8 8 8 8 8 8 8 8 8 8 8 8 8 8 11 12 12 13 15 17 23 21 16 13 13 13 13 13 13 13 13 13 13 14 15 16 17 17 18 18 20 21 22 23 23 23 23 23 23 23 24 26 27 28 28 28 28 28 32 32 32 33 36 37 38 41 43 46 48 48 48 48 48 48 48 49 50 52 53 51 48 47 47 44 43 44 44 44 43 43 43 43 43 43 43 43 42 43 43 42 41 40 38 38 38 38 37 36 36 35 34 33 33 33 33 33 33 33 31 32 32 31 31 31 30 30 30 30 30 30 30 30 30 30 30 30 30 29 29 27 27 25 25 26 29 29 28
-9999 -9999 -9999 -9999 -9999 -9999 -9999 -9999 -9999 -9999 -9999 -9999 -9999 -9999 -9999 -9999 -9999 -9999 -9999 -9999 -9999 -9999 -9999 -9999 -9999 -9999 -9999 -9999 -9999 -9999 -9999 -9999 -9999 -9999 -9999 2 2 1 1 1 1 1 1 1 1 2 2 1 1 1 1 1 1 1 1 1 2 2 2 2 2 2 2 2 2 2 2 3 3 5 6 9 10 11 11 10 9 8 6 5 5 4 4 4 4 4 4 4 4 8 6 6 7 7 7 8 9 9 9 9 9 9 8 9 8 8 8 8 8 9 10 10 10 8 8 7 6 5 5 5 5 4 4 4 4 4 4 4 5 4 4 4 4 4 3 3 3 3 3 3 3 3 3 3 3 3 3 3 3 3 3 3 3 3 3 3 3 3 3 3 3 3 3 3 3 3 3 3 3 2 2 3 3 3 3 3 3 3 3 3 3 3 5 4 5 5 6 5 7 7 7 7 7 7 8 8 9 8 8 9 9 10 11 11 11 11 11 10 8 8 8 8 7 5 1 1 2 3 4 4 5 6 7 7 7 7 7 7 7 7 8 7 7 8 7 7 7 8 8 8 8 8 8 8 8 8 8 8 6 6 6 7 7 5 6 7 8 8 8 8 8 8 8 8 8 8 8 8 8 8 9 11 13 17 23 25 18 13 13 13 13 13 13 13 13 13 13 13 13 14 15 16 17 17 18 19 21 22 23 23 23 23 23 23 23 24 24 26 27 27 27 28 28 28 32 33 35 38 38 37 38 39 40 43 44 44 46 48 48 48 48 49 51 52 53 53 51 48 48 48 48 47 48 48 48 46 43 44 45 44 44 44 43 43 43 45 43 43 42 41 39 38 38 37 37 36 36 35 34 33 33 33 33 33 33 32 32 32 31 31 31 30 30 30 30 30 30 30 30 30 30 30 30 30 29 28 27 27 25 25 25 26 29 30
-9999 -9999 -9999 -9999 -9999 -9999 -9999 -9999 -9999 -9999 -9999 -9999 -9999 -9999 -9999 -9999 -9999 -9999 -9999 -9999 -9999 -9999 -9999 -9999 -9999 -9999 -9999 -9999 -9999 -9999 -9999 -9999 3 1 1 1 1 1 1 1 1 1 1 1 1 2 2 1 1 1 1 1 1 1 2 2 2 2 2 2 2 3 3 3 3 3 4 5 7 9 11 13 13 13 13 13 10 8 5 3 3 3 3 3 3 3 3 3 3 5 6 6 7 7 8 8 11 12 10 10 10 9 8 8 8 8 8 8 8 11 18 20 17 12 10 8 7 6 6 6 6 5 5 5 5 5 5 5 6 4 4 4 4 4 4 4 4 3 3 3 3 3 3 3 3 3 3 3 3 3 3 3 3 3 3 3 3 3 3 3 3 3 3 3 3 3 3 3 3 3 3 3 3 3 3 3 3 3 3 3 3 3 3 4 5 6 7 7 8 8 8 9 9 9 11 12 13 13 13 13 13 13 13 13 13 13 13 13 12 10 9 8 5 1 1 3 5 6 8 8 8 8 8 8 8 8 8 8 9 9 9 8 8 8 8 8 8 8 8 8 8 8 8 8 8 8 8 8 6 5 4 4 3 3 3 3 6 7 7 7 7 7 7 8 8 8 8 8 8 8 8 8 11 12 12 12 12 13 13 13 13 13 13 13 13 13 13 13 14 16 16 17 18 18 19 20 22 23 23 23 23 23 23 23 23 23 23 23 26 26 27 27 28 28 28 29 32 32 32 33 35 37 38 40 41 42 43 45 46 47 48 48 50 52 53 53 52 51 51 50 51 49 49 49 48 48 47 47 48 48 47 47 47 47 47 48 46 44 43 42 41 40 39 38 38 37 36 36 35 34 33 33 33 33 33 32 32 32 32 31 31 31 30 30 30 30 30 30 30 30 30 30 29 29 29 27 26 26 25 25 28 28 30 30
-9999 -9999 -9999 -9999 -9999 -9999 -9999 -9999 -9999 -9999 -9999 -9999 -9999 -9999 -9999 -9999 -9999 -9999 -9999 -9999 -9999 -9999 -9999 -9999 -9999 -9999 -9999 -9999 -9999 -9999 2 2 2 1 1 1 1 1 1 1 1 1 1 1 1 2 2 1 1 1 1 1 1 2 3 3 3 3 3 3 5 6 7 7 6 6 7 8 10 12 13 14 15 15 13 13 10 7 3 3 3 3 3 3 3 3 3 3 3 5 6 7 11 13 13 14 14 14 12 12 12 10 8 8 8 8 10 11 10 12 13 17 23 17 10 8 7 7 6 7 6 6 6 5 5 5 5 5 8 5 5 5 5 5 4 4 4 4 3 3 3 3 3 3 3 3 3 3 3 3 3 3 3 3 3 3 3 3 3 3 3 3 3 3 3 3 3 3 3 3 3 3 3 3 3 3 3 3 3 3 3 3 3 5 7 8 8 8 9 10 11 12 13 13 13 15 17 17 18 18 17 17 13 13 13 13 12 11 9 8 8 5 2 1 3 7 8 8 8 8 8 8 8 8 8 9 9 10 11 11 11 11 11 11 10 10 9 9 8 8 8 8 8 8 8 8 8 8 5 3 3 3 3 3 3 3 4 5 6 6 7 7 7 8 8 8 8 8 8 8 8 10 12 13 13 13 13 13 14 14 14 15 15 15 15 15 15 16 17 18 18 18 18 19 20 20 23 23 23 23 23 23 23 23 23 23 23 23 23 26 26 27 28 28 30 31 32 33 33 34 35 38 38 39 39 39 42 43 45 48 49 50 52 53 53 53 53 53 53 53 53 53 53 52 50 48 48 48 49 49 48 48 48 48 48 48 48 47 45 43 43 42 41 39 38 38 37 37 35 34 33 33 33 33 33 32 32 32 32 32 31 31 31 31 30 31 31 31 30 30 30 30 29 30 30 28 28 29 27 26 28 25 22 21
-9999 -9999 -9999 -9999 -9999 -9999 -9999 -9999 -9999 -9999 -9999 -9999 -9999 -9999 -9999 -9999 -9999 -9999 -9999 -9999 -9999 -9999 -9999 -9999 -9999 -9999 -9999 3 3 2 2 1 1 1 1 1 1 1 1 1 1 1 1 1 1 3 2 1 1 1 1 1 1 2 3 3 7 7 7 8 8 8 8 8 7 7 7 8 10 12 13 13 13 13 13 9 7 6 3 3 3 3 3 3 3 3 3 4 4 6 6 7 8 9 12 16 17 18 18 18 15 12 10 9 8 11 14 17 14 14 13 13 17 18 12 8 7 7 6 7 6 6 5 5 5 5 5 5 7 5 4 4 4 4 3 3 3 3 3 3 3 3 3 3 3 3 3 3 3 3 3 3 3 3 3 3 3 3 3 3 3 3 3 3 3 3 3 3 3 3 3 3 3 3 3 3 3 3 3 3 3 3 5 7 8 9 10 11 11 12 13 14 15 16 17 18 18 18 18 18 17 17 13 13 11 11 10 9 8 8 7 3 1 1 4 8 8 8 8 8 9 9 9 10 10 11 11 12 13 14 14 13 14 13 13 12 11 11 9 8 8 8 8 7 7 8 8 7 3 3 3 3 3 4 3 3 6 7 7 7 7 8 8 8 8 8 8 8 9 9 10 12 11 12 13 13 14 14 15 16 16 16 16 16 17 17 18 18 18 18 18 18 18 19 19 19 22 21 22 22 22 23 23 23 23 23 23 24 26 28 28 28 28 31 33 33 33 33 33 33 33 34 37 37 38 39 41 43 46 50 53 53 53 53 53 53 53 54 54 55 55 54 54 53 53 51 48 50 51 53 52 51 51 49 48 49 49 48 48 46 46 44 43 42 40 38 38 37 36 35 34 34 33 33 33 32 33 33 32 32 32 32 32 31 31 31 31 31 30 30 30 30 28 28 29 26 25 25 25 25 25 24 22 22
-9999 -9999 -9999 -9999 -9999 -9999 -9999 -9999 -9999 -9999 -9999 -9999 -9999 -9999 -9999 -9999 -9999 -9999 -9999 -9999 -9999 -9999 -9999 -9999 5 5 3 2 2 1 1 1 1 1 1 1 1 1 1 1 1 1 1 1 1 1 1 1 1 1 1 1 1 2 3 4 7 9 10 12 12 13 12 10 9 8 8 8 10 13 13 13 12 11 8 7 6 6 4 3 3 5 5 5 4 4 4 5 5 7 7 7 8 8 10 11 12 13 14 17 18 16 13 12 12 12 13 15 16 18 17 17 18 22 15 10 8 7 7 7 6 6 6 5 5 5 5 5 7 5 4 4 4 4 3 3 3 3 3 3 3 3 3 3 3 3 3 3 3 3 3 3 3 3 3 3 3 3 3 3 3 3 3 3 3 3 3 3 3 3 3 3 3 3 3 3 3 3 3 3 4 5 7 9 11 12 13 14 14 15 16 17 18 18 19 19 18 18 18 17 15 14 13 12 9 8 8 8 8 8 5 2 1 1 4 8 8 8 8 8 8 8 8 11 11 12 12 13 17 16 15 16 16 14 13 13 13 12 10 8 8 7 7 7 7 8 5 3 3 3 3 3 6 7 4 4 7 7 7 8 8 8 8 8 8 8 9 10 11 11 11 12 12 13 13 14 16 16 17 18 18 18 18 18 18 18 18 18 18 18 18 18 18 18 18 18 18 18 20 21 22 23 23 23 23 23 24 24 26 27 28 28 29 30 31 33 33 33 33 33 33 34 36 37 38 39 41 42 44 48 52 52 50 50 53 53 54 57 58 58 58 58 58 57 54 53 53 53 56 56 54 53 53 52 52 52 52 51 50 48 48 46 43 43 42 41 39 38 37 36 35 34 33 33 33 32 32 32 31 31 31 31 30 30 30 30 30 30 29 29 29 28 27 26 30 25 25 25 25 25 24 24 24 22
-9999 -9999 -9999 -9999 -9999 -9999 -9999 -9999 -9999 -9999 -9999 -9999 -9999 -9999 -9999 -9999 -9999 -9999 -9999 -9999 -9999 -9999 5 3 3 3 3 3 2 1 1 1 1 1 1 1 1 1 1 1 1 1 1 1 1 1 1 1 1 1 1 1 1 1 2 2 2 3 3 6 7 8 8 10 10 10 9 9 12 13 12 9 8 8 8 8 8 8 6 5 7 8 8 7 7 6 6 7 7 8 8 8 8 8 10 11 11 11 12 13 16 13 13 13 15 16 18 18 19 22 21 19 21 23 14 10 8 7 7 7 7 6 6 6 5 5 5 5 6 5 4 4 4 4 3 3 3 3 3 3 3 3 3 3 3 3 3 3 3 3 3 3 3 3 3 3 3 3 3 3 3 3 3 3 3 3 3 3 3 3 3 3 3 3 3 3 3 3 3 4 5 7 9 13 14 18 18 18 17 18 18 19 20 21 22 22 21 19 19 18 18 18 17 15 13 13 12 11 9 6 3 2 1 1 4 8 8 8 8 8 8 8 8 10 11 13 13 18 18 18 18 18 18 13 13 13 12 10 9 8 7 6 5 4 3 3 3 3 3 3 3 3 3 6 4 4 6 7 7 7 7 7 8 8 8 8 9 11 12 13 13 13 13 13 13 16 17 18 18 20 21 22 22 20 20 19 19 19 18 18 18 18 18 18 18 18 18 18 20 21 22 22 23 23 23 23 24 24 27 27 28 28 28 28 29 31 32 32 33 34 35 37 38 38 40 41 43 43 45 47 47 48 50 51 52 53 56 58 58 58 58 58 58 57 53 53 57 57 58 58 58 58 57 55 55 55 53 53 52 49 48 47 45 44 43 42 40 38 37 36 35 34 33 33 33 32 32 32 32 31 31 31 30 30 30 30 30 30 29 29 29 28 28 27 26 26 26 26 26 25 25 25 25 25
-9999 -9999 -9999 -9999 -9999 -9999 -9999 -9999 -9999 -9999 -9999 -9999 -9999 -9999 -9999 -9999 -9999 -9999 -9999 8 6 3 3 3 3 3 3 3 2 2 1 1 1 1 1 1 1 1 1 1 1 1 1 1 1 1 1 1 1 1 1 1 1 1 2 2 3 3 3 5 7 7 8 10 11 11 11 10 10 10 9 8 8 8 8 8 8 8 7 7 7 9 9 8 7 7 7 7 7 8 8 8 8 8 9 10 10 10 10 11 12 12 12 13 13 14 16 18 19 23 23 23 20 16 12 10 9 8 8 7 7 7 6 6 6 6 5 5 6 5 5 5 4 4 3 3 3 3 3 3 3 3 3 3 3 3 3 3 3 3 3 3 3 3 3 3 3 3 3 3 3 3 3 3 3 3 3 3 3 3 3 3 3 3 3 3 3 3 4 5 7 8 10 12 15 18 20 23 23 23 23 23 23 23 23 23 23 23 22 22 22 21 20 19 19 18 18 16 12 8 3 2 1 1 3 7 8 8 8 8 8 8 8 10 11 12 12 13 15 18 16 13 12 11 9 9 9 8 8 7 6 5 3 3 3 3 3 3 3 3 3 3 3 5 3 4 7 7 7 7 7 7 7 8 8 12 13 13 13 12 12 12 13 13 14 17 19 20 23 23 23 22 21 20 19 19 18 18 18 18 18 18 18 18 18 18 18 18 19 21 21 22 22 22 23 23 23 23 26 27 27 27 27 28 28 29 31 32 32 34 35 37 38 39 41 42 43 45 47 50 52 53 55 55 55 55 57 58 58 58 58 58 58 58 56 56 58 58 58 58 59 58 58 58 58 58 56 53 51 49 49 49 48 47 48 43 41 39 38 38 37 36 35 34 33 33 33 32 32 32 31 31 31 31 30 30 30 30 29 28 28 28 27 26 26 26 26 26 25 25 25 25 25 25
-9999 -9999 -9999 -9999 -9999 -9999 -9999 -9999 -9999 -9999 -9999 -9999 -9999 -9999 -9999 -9999 5 9 8 4 3 2 2 2 2 2 2 2 2 1 1 1 1 1 1 1 1 1 1 1 1 1 1 1 1 1 2 1 1 1 1 1 1 2 3 3 4 5 5 7 8 9 11 12 13 13 13 12 11 10 10 10 8 8 8 8 8 8 8 7 10 13 13 8 8 8 7 8 8 8 8 8 8 9 11 11 9 9 9 10 12 12 12 13 15 17 16 16 18 18 22 19 17 15 13 13 13 12 13 10 8 7 7 7 6 6 6 6 7 5 5 5 5 5 4 4 4 3 3 3 3 3 3 3 3 3 3 3 3 3 3 3 3 3 3 3 3 3 3 3 3 3 3 3 3 3 3 3 3 3 3 3 3 3 3 3 3 4 5 6 7 10 13 14 17 19 20 22 23 25 27 24 23 24 23 23 23 23 17 13 21 23 21 23 23 21 17 12 8 7 2 1 1 1 2 5 7 7 8 10 12 13 12 12 13 13 15 18 17 15 13 12 11 10 8 8 7 7 7 6 4 3 3 3 3 3 3 3 3 3 3 3 3 3 3 3 5 7 7 7 7 8 8 8 8 10 10 9 9 8 9 10 12 13 15 18 18 18 18 20 20 19 18 18 18 18 18 18 18 18 18 18 18 18 18 18 19 20 22 22 22 23 23 23 23 23 23 24 25 26 27 28 28 31 31 32 32 32 33 35 36 37 38 40 42 44 47 49 50 52 53 55 58 58 58 58 58 58 58 58 58 58 58 59 60 58 58 59 60 60 61 59 58 60 59 58 54 58 58 58 58 56 56 54 51 48 44 42 40 39 38 37 37 36 34 34 33 33 32 32 32 32 31 31 30 31 30 30 29 28 28 28 27 26 26 26 26 25 25 25 25 25 26 27
-9999 -9999 -9999 -9999 -9999 -9999 -9999 -9999 -9999 -9999 -9999 -9999 -9999 7 7 8 8 6 4 2 3 1 1 2 2 2 2 3 3 2 1 1 1 1 1 1 1 1 1 1 1 1 1 1 1 2 2 2 2 2 2 2 3 3 4 5 6 7 8 8 10 11 13 16 19 23 17 15 13 12 12 11 10 10 10 8 10 10 9 10 13 13 8 8 8 8 8 11 13 12 11 11 10 11 11 10 8 8 8 8 9 10 9 11 12 11 12 13 17 18 22 18 14 13 13 18 20 19 20 14 9 8 7 7 7 6 6 6 7 6 5 5 5 5 4 4 4 3 3 3 3 3 3 3 3 3 3 3 3 3 3 3 3 3 3 3 3 3 3 3 3 3 3 3 3 3 3 3 3 3 3 3 3 3 3 3 4 4 5 6 7 16 23 24 23 23 24 26 28 28 28 25 24 24 24 23 22 20 14 13 11 12 13 17 19 18 14 10 8 3 2 1 1 2 3 6 7 9 12 14 15 15 15 14 13 13 16 18 18 14 14 13 12 10 8 7 6 6 5 5 4 3 3 3 3 3 3 3 3 3 3 3 3 3 3 3 4 6 7 8 8 8 8 8 8 8 8 8 8 8 8 9 11 13 14 17 17 17 17 17 17 17 18 18 18 17 17 17 17 17 17 17 17 18 18 18 19 21 22 22 23 24 25 28 27 27 28 26 27 28 28 28 29 33 33 33 33 34 36 38 39 39 40 42 43 46 49 53 53 55 56 57 58 58 59 59 59 58 59 59 58 58 60 63 63 61 59 60 62 63 63 63 62 63 63 58 56 60 62 60 58 63 63 63 60 58 54 47 44 42 41 40 38 37 36 35 33 33 32 32 32 32 31 31 31 31 30 30 28 28 28 28 26 26 26 25 25 25 26 26 27 27 28 29
-9999 -9999 -9999 -9999 -9999 -9999 -9999 -9999 -9999 -9999 7 8 6 6 5 7 5 4 2 1 1 1 1 1 1 1 1 1 1 1 1 1 1 1 1 1 1 1 1 1 1 1 1 1 2 2 2 2 3 3 3 3 5 5 6 7 8 9 10 11 12 14 16 22 33 32 23 18 16 17 15 13 13 11 11 12 13 12 11 9 9 9 11 11 8 8 11 13 13 13 13 13 12 12 12 12 11 10 10 10 10 9 8 9 9 9 9 9 9 8 8 8 8 9 9 11 13 19 19 18 18 11 7 7 7 7 6 6 7 6 6 5 5 5 4 4 4 3 3 3 3 3 3 3 3 3 3 3 3 3 3 3 3 3 3 3 3 3 3 3 3 3 3 3 3 3 3 3 3 3 3 3 3 3 3 3 4 4 4 6 7 18 27 28 28 28 27 27 28 27 23 22 23 23 23 23 22 11 1 1 1 1 1 1 1 1 1 1 1 1 1 1 2 3 6 8 13 16 18 18 18 19 19 19 18 17 18 18 17 15 14 13 11 9 8 6 5 4 4 3 3 3 3 3 3 3 3 3 3 3 4 3 3 3 3 3 3 6 7 7 7 7 7 7 7 7 7 8 8 8 8 10 11 13 13 13 13 13 14 14 15 15 15 16 16 16 15 15 15 16 16 16 17 17 18 18 18 18 21 22 27 24 23 23 23 23 23 23 24 25 26 27 28 32 33 33 35 38 39 41 42 43 43 43 44 47 48 52 54 58 58 58 59 61 62 62 63 62 63 63 63 62 63 63 63 63 63 63 63 63 63 63 63 63 59 59 62 63 63 63 63 64 63 63 63 63 60 58 58 54 43 42 40 38 37 35 34 33 33 33 33 32 32 32 32 32 32 33 31 32 31 26 25 25 25 25 25 25 26 27 27 28 28 29
-9999 -9999 -9999 -9999 -9999 -9999 -9999 5 8 8 7 8 5 4 3 2 2 2 1 1 1 1 1 1 1 1 1 1 1 1 1 1 1 1 1 1 1 1 1 1 1 1 1 2 2 3 3 3 4 5 5 7 7 7 8 9 10 12 15 16 15 15 17 22 33 29 24 20 18 18 17 15 14 13 14 13 14 13 13 12 12 13 13 13 12 12 13 15 16 17 17 18 18 16 15 14 13 11 11 11 11 8 8 9 9 8 8 8 8 8 8 8 8 8 8 8 8 8 9 9 13 11 7 7 7 7 6 6 7 6 6 5 5 5 4 3 3 3 3 3 3 3 3 3 3 3 3 3 3 3 3 3 3 3 3 3 3 3 3 3 3 3 3 3 3 3 3 3 3 3 3 3 3 3 3 3 3 3 3 3 3 4 8 10 9 8 7 7 7 6 4 3 3 3 3 2 2 1 1 1 1 1 1 1 1 1 2 2 2 2 2 2 3 3 5 7 9 12 14 17 19 23 23 23 21 20 20 19 18 16 13 11 10 8 7 5 3 3 3 3 3 3 3 3 4 3 4 4 4 4 7 6 5 4 3 3 4 8 8 8 8 8 8 7 8 8 8 8 8 8 8 8 10 11 11 12 12 13 13 13 13 14 14 14 14 14 14 14 14 15 15 15 17 17 18 18 21 22 27 28 23 22 22 22 22 22 23 23 24 26 26 27 28 33 34 36 38 39 42 43 43 42 43 43 44 48 49 53 53 55 58 58 63 63 63 63 63 63 63 63 63 63 64 64 65 65 65 64 63 64 64 63 63 63 61 63 64 65 65 66 67 68 66 64 63 60 58 58 58 51 54 45 43 43 41 38 35 33 33 33 33 32 32 32 32 33 32 33 31 31 28 25 26 26 26 26 26 26 27 28 29 29 29 30
-9999 -9999 -9999 -9999 -9999 6 6 8 8 8 7 5 3 2 2 2 2 2 1 1 1 1 1 1 1 1 1 2 2 2 2 2 2 2 2 2 1 1 1 1 1 2 2 3 3 3 4 4 5 6 7 8 10 10 10 12 14 15 16 20 31 33 33 35 33 29 27 23 22 21 18 16 17 17 17 17 18 15 13 13 15 18 14 13 13 13 16 18 18 18 18 18 18 18 18 16 13 13 13 13 13 12 11 12 11 9 9 9 8 8 8 8 8 8 8 8 8 8 8 8 8 8 7 7 7 6 6 6 6 5 5 5 5 5 3 3 3 3 3 3 3 3 3 3 3 3 3 3 3 3 3 3 3 3 3 3 3 3 3 3 3 3 3 3 3 3 3 3 3 3 3 3 3 3 3 3 3 3 3 3 2 3 3 3 3 3 3 2 3 2 2 2 2 1 1 1 1 1 1 2 2 2 2 2 2 3 3 3 3 3 3 2 3 3 5 7 8 12 13 15 17 19 23 23 23 23 24 24 23 18 13 11 9 8 6 4 3 3 3 4 4 3 3 4 5 5 6 6 7 7 8 8 7 7 6 5 8 8 8 8 8 8 8 8 8 8 8 8 8 8 8 8 10 11 11 11 12 12 12 13 13 13 13 13 13 13 13 13 13 13 13 13 15 17 19 26 22 19 18 18 18 19 20 20 21 21 22 22 23 25 27 28 32 34 36 38 38 38 38 39 39 38 38 41 42 44 47 47 49 53 58 59 62 63 63 63 63 63 63 65 65 66 66 67 68 68 68 68 67 67 68 68 68 66 63 63 67 68 68 68 68 67 64 65 64 63 63 63 59 68 68 66 55 48 48 46 40 36 33 33 32 32 31 31 32 32 31 31 28 28 28 28 28 28 28 28 28 28 29 30 30 30 30 30
-9999 -9999 8 8 8 8 8 5 5 2 2 2 2 2 2 2 2 2 1 1 1 1 1 1 1 1 1 1 1 1 1 1 1 2 2 2 2 1 2 2 2 3 3 4 5 5 6 7 7 8 9 10 12 13 14 15 17 20 24 28 28 34 38 34 30 28 28 28 26 22 20 22 21 19 19 18 17 13 13 13 14 13 13 13 13 13 13 13 13 13 14 17 18 19 22 20 17 16 18 17 16 13 12 13 13 12 12 13 11 8 8 8 8 8 8 8 8 8 8 8 8 8 7 7 7 6 6 6 6 5 5 4 5 4 3 3 3 3 3 3 3 3 3 3 3 3 3 3 3 3 3 3 3 3 3 3 3 3 3 3 3 3 3 3 3 3 3 3 3 3 3 3 3 3 3 3 3 3 3 3 3 3 3 3 3 3 3 3 3 3 3 3 2 1 1 1 1 1 2 3 3 3 3 3 3 3 3 3 3 3 3 3 3 3 3 5 6 9 13 16 18 20 23 26 28 28 28 28 23 16 11 9 8 5 3 3 5 5 6 7 7 6 6 7 7 7 7 8 8 8 8 8 8 8 7 7 8 8 8 8 8 8 8 7 8 8 8 8 8 8 9 9 11 10 10 10 11 11 12 13 13 13 13 13 13 13 13 13 13 13 13 13 15 15 17 16 16 17 17 18 18 19 20 20 20 21 22 22 23 25 27 28 31 33 33 33 33 33 35 37 37 37 38 40 42 43 46 49 53 55 58 58 57 56 58 59 61 63 63 65 67 67 68 68 68 68 68 68 68 68 68 68 68 68 68 63 68 68 69 68 68 68 71 69 68 64 64 66 64 69 69 69 68 59 51 48 41 37 35 33 33 33 33 33 32 33 32 30 28 28 28 28 28 28 28 28 29 29 30 30 30 30 30 30
5 6 6 5 7 6 4 2 2 2 2 2 2 2 2 2 1 1 1 1 1 1 1 1 1 1 1 1 1 1 1 1 1 2 2 2 2 2 2 2 3 3 5 6 7 8 8 8 9 11 13 14 15 18 20 19 23 37 39 40 38 38 38 34 33 33 33 30 26 24 28 28 24 23 21 14 13 13 13 13 13 14 13 13 13 13 13 13 14 14 13 16 17 18 22 23 23 23 23 21 19 17 13 13 13 13 15 18 17 10 8 8 8 8 8 8 8 8 8 8 8 8 8 7 7 7 6 6 6 6 5 5 4 4 3 3 3 3 3 3 3 3 3 4 4 4 3 3 3 3 3 3 3 3 3 3 3 3 3 3 3 3 3 3 3 3 3 3 3 3 3 3 3 3 3 3 3 3 3 3 3 3 3 3 3 3 3 3 3 3 3 1 1 1 1 1 1 1 4 5 5 3 3 3 3 3 3 3 3 3 3 2 3 3 3 3 3 4 6 7 14 16 18 16 17 15 11 10 8 6 5 5 3 3 3 3 7 7 8 9 10 9 8 8 8 8 8 8 8 9 12 12 10 9 9 8 8 8 8 10 11 10 7 5 4 8 8 8 8 8 8 9 11 10 9 9 10 10 12 13 13 13 13 13 13 13 13 13 13 13 13 14 15 15 15 15 15 15 17 18 18 19 20 20 20 20 22 23 26 28 27 27 28 29 30 30 30 32 33 37 38 38 38 40 43 43 46 48 47 48 48 52 57 59 61 63 64 65 66 68 68 69 69 70 70 71 70 69 70 71 71 70 70 69 68 68 69 71 72 72 72 73 73 71 68 68 68 68 70 73 73 73 71 64 55 47 42 37 36 35 33 33 33 33 32 33 32 31 30 29 30 30 29 29 29 30 29 30 30 30 30 30 30 30
5 5 3 2 2 2 2 2 2 2 2 2 2 2 2 2 2 2 1 1 1 1 1 1 1 1 2 2 2 2 2 2 2 2 2 2 2 2 2 3 3 5 7 8 11 12 13 13 13 13 13 16 18 34 38 39 42 44 43 34 33 33 33 33 33 33 33 31 27 23 22 20 18 18 14 13 14 14 15 16 17 17 15 16 15 14 13 14 16 17 17 17 17 18 18 18 18 18 19 22 23 22 20 18 18 18 17 15 13 12 9 8 8 8 8 8 8 8 8 8 8 8 8 8 7 7 7 7 7 7 7 6 7 7 7 4 4 4 4 5 4 4 4 5 5 5 3 3 3 3 3 3 3 3 3 3 3 3 3 3 3 3 3 3 3 3 3 3 3 3 3 3 3 3 3 3 3 3 3 3 3 3 3 3 3 3 3 3 2 2 1 1 1 1 1 1 1 3 5 5 5 3 3 3 3 3 3 3 3 3 3 2 3 3 3 3 3 3 3 3 3 5 5 5 5 4 3 3 3 3 3 3 3 3 3 4 5 6 7 9 10 10 12 12 12 13 11 10 10 10 10 10 10 11 12 12 11 12 16 18 20 24 20 14 4 4 8 8 8 8 10 9 11 8 8 8 8 9 10 10 10 10 10 11 14 13 13 13 13 13 13 14 15 15 15 16 17 17 18 18 18 19 20 20 20 20 21 23 24 23 24 25 26 28 28 30 30 31 32 33 33 34 37 41 43 43 43 43 43 45 48 53 59 63 63 64 66 68 68 69 71 71 71 71 71 72 72 72 72 73 73 73 73 73 72 73 70 73 73 73 73 73 73 73 73 73 73 73 73 75 73 66 55 51 48 48 51 46 36 34 33 32 32 31 30 30 30 30 29 28 29 29 29 29 29 29 29 30 30 30 30 31 32 33
1 2 1 2 2 2 1 1 1 1 1 2 2 2 2 2 2 2 2 1 1 1 1 1 1 2 2 2 2 2 2 2 2 2 2 2 2 3 3 4 5 7 8 9 12 13 16 18 18 18 17 18 18 21 27 39 38 31 26 21 18 19 19 18 18 18 18 18 18 18 18 18 18 18 16 17 17 17 17 20 21 19 18 19 18 18 17 18 18 18 18 18 18 18 18 18 18 17 14 15 16 16 17 17 16 16 15 14 13 13 11 10 8 8 8 8 8 8 8 8 8 8 8 8 8 7 7 7 7 7 7 6 7 7 6 4 5 5 5 5 5 4 4 5 5 5 3 3 3 3 3 3 3 3 3 3 3 3 3 3 3 3 3 3 3 3 3 3 3 3 3 3 3 3 3 3 3 3 3 3 3 3 3 3 2 2 2 1 1 1 1 1 1 1 1 1 1 4 5 5 4 3 3 3 3 3 3 3 3 3 3 2 3 3 3 3 3 3 3 3 3 3 4 4 3 3 3 3 3 3 3 3 3 3 3 4 5 6 7 8 8 10 13 14 14 13 14 14 14 13 12 13 13 13 14 15 16 14 15 18 18 16 13 11 7 4 4 6 8 8 11 10 11 8 8 8 8 8 9 10 10 13 17 22 20 15 13 13 15 16 16 17 17 16 16 15 16 18 18 19 20 20 20 20 21 21 22 23 23 23 23 25 26 27 26 27 28 31 33 33 33 34 37 38 38 38 39 42 43 46 49 58 60 58 62 63 66 68 68 68 68 71 71 71 72 73 73 73 73 73 73 73 73 73 73 73 73 73 73 74 75 73 76 77 75 73 73 71 72 70 62 57 49 52 69 68 42 37 36 34 33 33 33 33 32 32 31 30 30 30 30 30 30 30 30 30 30 31 31 32 32 33 34 34
3 3 3 1 -1 -1 1 1 1 1 1 1 1 1 1 1 1 1 2 1 1 2 1 1 1 2 2 2 2 2 2 2 2 2 2 2 2 3 3 3 4 6 8 9 13 13 16 17 16 17 18 17 17 17 18 18 19 18 18 18 17 16 15 17 18 17 17 18 18 18 18 18 18 18 17 18 18 18 18 23 23 23 24 23 22 21 18 18 18 18 18 18 19 18 18 18 17 16 14 13 13 13 13 13 13 13 13 13 13 13 13 11 8 8 8 8 8 8 8 8 8 8 8 8 8 8 7 7 7 7 7 6 7 7 6 5 5 5 5 6 5 5 5 6 6 6 3 3 3 3 3 3 3 3 3 3 3 3 3 3 3 3 3 3 3 3 3 3 3 3 3 3 3 3 3 3 3 3 3 3 3 2 2 2 2 1 1 1 1 1 1 1 1 1 1 1 1 3 5 5 5 5 4 3 3 3 3 3 3 3 3 3 3 3 3 3 3 3 3 3 3 3 3 2 3 3 3 3 3 3 3 3 3 3 3 3 5 6 7 9 10 10 12 17 17 15 17 18 18 19 19 18 19 24 29 25 18 13 12 12 11 10 10 8 8 7 5 5 7 7 8 8 8 8 8 8 9 9 10 10 13 22 28 28 23 17 15 13 14 15 15 15 15 16 17 17 18 18 19 20 23 26 31 37 32 27 24 23 22 23 23 23 23 24 25 25 28 30 32 33 32 32 33 33 34 36 38 41 43 45 48 50 52 55 58 63 66 66 63 67 68 70 71 71 73 73 75 75 75 75 77 78 78 78 78 73 73 74 75 78 79 78 79 80 80 78 73 68 68 68 58 58 68 75 75 57 42 39 37 35 34 33 33 33 33 32 30 30 30 30 30 30 30 30 30 31 31 32 32 33 33 34 34 35
1 1 -1 -1 -1 -1 -1 1 1 1 1 1 1 1 1 1 1 1 1 1 2 2 1 1 2 2 2 2 2 2 2 2 2 2 2 2 2 2 3 3 3 4 6 8 8 9 9 10 11 12 12 12 13 14 16 17 18 16 14 13 13 13 13 15 18 17 17 18 18 18 18 18 18 18 18 20 21 21 22 25 28 31 29 28 27 28 23 21 20 20 19 20 20 19 19 18 18 17 15 14 13 13 13 13 13 13 13 13 13 13 13 11 9 8 8 8 8 8 8 8 8 8 8 8 8 8 8 7 7 7 7 6 7 7 6 5 5 5 5 6 5 4 4 5 5 5 3 3 3 3 3 3 3 3 3 3 3 3 3 3 3 3 3 3 3 3 3 3 3 3 3 3 3 3 3 3 3 3 2 2 2 2 2 1 1 1 1 1 1 1 1 1 1 1 1 1 1 1 2 2 3 4 3 3 3 3 3 3 3 3 3 3 3 3 3 3 3 3 3 3 3 3 2 2 1 2 3 3 3 3 3 3 3 3 3 4 5 5 6 7 9 10 10 10 10 11 13 17 18 21 18 17 17 18 19 16 12 12 11 11 11 10 10 8 8 8 8 8 8 8 8 8 8 8 9 9 10 10 13 17 21 28 27 22 22 17 15 15 15 15 15 16 17 18 18 20 20 21 23 24 28 32 35 38 32 25 23 22 20 21 22 23 23 24 25 27 30 30 30 30 30 30 36 35 34 35 38 40 42 43 44 46 50 59 65 65 59 58 68 68 68 68 71 72 73 74 75 75 77 78 78 78 78 78 78 77 78 79 79 80 80 80 79 80 80 79 72 63 63 58 63 70 73 78 80 78 71 46 38 35 35 34 33 33 32 31 30 30 30 30 31 31 30 30 31 32 33 33 33 34 34 35 37 46
1 1 -1 -1 -1 -1 -1 -1 1 1 1 1 1 1 1 1 1 2 2 2 2 3 2 1 2 2 2 2 2 2 2 2 2 2 2 2 2 2 3 3 3 3 3 3 4 5 7 8 8 8 8 8 11 12 13 13 13 13 13 12 9 11 13 13 13 13 15 18 18 18 18 19 19 18 22 26 28 27 23 30 34 36 33 32 31 29 27 24 23 23 22 21 21 21 20 18 18 17 15 13 13 13 13 13 13 13 13 13 13 13 12 12 10 8 8 8 8 8 8 8 8 8 8 8 8 8 8 8 8 8 7 7 7 7 6 6 5 5 5 6 5 4 4 6 6 5 3 3 3 3 3 3 3 3 3 3 3 3 3 3 3 3 3 3 3 3 3 3 3 3 3 3 3 3 3 2 2 2 2 2 2 2 2 2 1 1 1 1 1 1 1 1 1 1 1 1 1 1 2 3 3 4 3 3 3 3 3 3 5 5 5 4 4 4 4 3 3 3 3 3 3 3 3 3 3 3 3 4 3 3 3 3 3 3 3 3 4 5 5 5 6 6 7 7 8 8 9 11 13 18 14 11 11 12 13 13 10 10 10 10 10 10 10 9 8 9 9 8 8 8 8 8 8 9 9 10 10 12 15 20 20 18 14 15 15 15 15 15 16 17 17 18 18 22 20 20 21 22 23 24 33 33 33 31 25 23 22 21 20 20 22 23 26 31 30 30 31 28 28 29 30 30 30 31 33 35 35 38 39 41 42 42 46 56 64 57 52 53 56 58 62 64 67 71 73 73 75 75 78 78 78 78 78 78 78 78 79 80 81 82 80 79 76 75 78 72 65 63 58 77 79 85 84 84 84 81 59 43 39 37 36 34 33 33 33 31 32 33 32 33 33 33 32 33 33 34 34 34 35 35 38 40 43 47
1 1 1 -1 -1 -1 -1 -1 -1 1 1 1 1 1 1 1 1 1 2 2 2 2 2 1 2 2 2 2 2 2 2 2 2 2 2 2 3 3 3 3 3 3 3 3 3 3 3 4 6 6 7 8 8 9 10 10 9 8 9 8 8 8 10 13 13 13 14 17 18 18 20 23 23 25 28 33 33 28 27 34 38 38 38 36 34 32 29 27 25 23 23 23 23 23 23 21 18 17 16 15 14 13 13 13 13 13 13 13 13 13 13 13 13 10 11 8 8 8 8 8 8 8 8 8 8 8 8 8 8 8 8 7 8 8 7 6 6 6 6 6 5 5 5 6 6 5 3 3 3 3 3 5 3 3 3 3 3 3 3 3 3 3 3 3 3 3 3 3 3 3 3 3 3 3 3 2 2 2 2 2 2 2 2 1 1 1 1 1 1 3 3 3 3 2 1 1 1 1 3 3 4 4 4 5 5 4 4 4 5 5 5 5 5 5 5 4 4 5 5 5 5 5 5 3 3 3 3 4 4 3 3 3 3 3 3 3 4 5 5 5 5 5 5 6 6 6 6 7 7 7 7 8 8 8 8 8 8 8 8 8 8 9 9 9 9 9 9 9 9 10 10 9 10 10 10 11 12 13 13 13 13 13 13 14 15 15 15 16 17 18 21 23 27 23 20 23 29 30 36 30 26 28 32 30 26 32 33 21 20 20 22 25 32 36 33 33 33 28 27 28 28 28 30 32 34 35 36 38 38 38 38 38 41 43 45 46 48 53 65 68 70 70 72 73 73 74 75 75 77 78 78 78 78 78 78 79 80 80 81 81 80 80 80 80 78 65 63 64 67 78 79 85 85 85 85 82 59 43 39 38 37 35 33 33 33 33 33 34 34 35 35 34 34 34 34 35 35 35 35 37 40 40 41 45
1 1 1 -1 -1 -1 -1 -1 1 1 2 2 2 2 2 2 1 1 2 2 2 3 2 2 2 2 2 2 2 2 2 2 2 3 3 3 3 3 7 12 15 8 5 3 3 3 3 3 3 3 4 5 6 7 8 8 8 8 8 8 8 9 13 13 15 16 18 18 22 21 22 23 25 28 30 33 33 30 28 31 38 38 38 38 35 33 30 28 28 28 28 28 27 26 23 18 18 18 18 18 18 15 15 16 17 17 14 13 12 12 12 11 9 8 8 8 8 8 8 8 8 7 7 7 7 7 7 7 8 8 7 6 6 5 6 6 7 7 7 8 7 7 7 8 8 8 6 4 3 4 8 3 3 3 3 3 3 3 3 3 3 3 3 3 3 3 3 3 3 3 3 3 3 3 3 3 3 3 3 3 3 3 3 3 3 2 2 2 3 3 3 3 3 3 3 2 3 4 5 5 5 5 5 6 5 5 5 5 5 6 6 6 6 5 5 5 5 5 5 5 5 5 5 7 8 3 3 3 5 5 4 4 4 3 3 3 3 4 5 5 5 5 5 5 5 5 5 5 5 6 6 6 8 8 8 8 8 8 8 8 8 8 9 9 9 9 9 9 10 10 10 10 10 13 15 13 13 13 13 13 13 13 13 14 15 15 15 16 17 24 24 22 21 19 20 20 22 21 21 21 21 21 21 20 20 20 20 20 22 28 37 48 46 46 43 39 31 26 26 26 27 28 30 32 35 38 41 37 35 35 37 38 38 41 42 43 47 56 61 62 62 71 73 73 73 72 73 73 76 77 77 78 78 78 79 79 80 81 81 80 80 80 80 78 78 65 67 85 85 85 85 85 85 85 82 75 56 42 39 37 37 35 33 33 33 33 33 34 35 37 39 37 35 36 36 37 37 38 39 40 44 45 45 45
1 1 1 -1 -1 1 1 1 2 3 3 3 3 3 3 3 2 2 3 3 3 3 3 2 2 2 2 3 3 3 2 3 3 3 3 3 3 3 7 12 20 24 18 14 13 8 6 3 3 3 3 3 3 6 8 8 9 8 8 10 9 13 14 17 18 18 19 21 23 26 25 26 27 28 33 38 38 37 34 33 38 39 40 40 38 37 33 34 34 33 33 30 28 26 23 22 18 18 18 19 18 18 22 23 20 18 14 13 13 13 13 13 12 12 12 9 9 8 8 8 8 8 8 8 8 8 8 8 9 10 7 6 5 5 7 7 8 7 7 7 7 7 7 8 8 10 8 8 3 4 6 3 3 3 3 3 3 3 3 3 3 3 3 3 3 3 3 3 3 3 3 3 3 3 3 3 3 3 3 3 3 3 3 3 3 3 3 3 3 3 3 4 4 5 5 6 6 5 5 6 8 8 8 9 9 8 6 7 7 7 7 7 7 7 6 5 5 6 6 6 5 5 6 7 8 8 6 3 3 5 6 5 5 5 4 3 3 4 5 5 5 5 5 5 5 5 5 5 5 5 5 6 7 7 7 8 8 8 8 8 9 9 9 9 10 10 10 10 10 10 10 10 10 12 13 13 13 13 13 13 13 13 13 15 15 15 17 19 15 15 15 15 16 18 18 18 20 20 21 20 19 19 20 20 20 21 30 29 33 38 41 42 47 48 26 23 23 25 25 25 27 28 29 32 32 32 33 34 34 35 37 40 40 40 41 43 43 48 48 50 53 59 60 63 68 73 74 76 77 77 77 78 78 78 79 79 81 84 83 80 81 84 81 78 70 65 75 85 85 86 87 88 87 85 78 61 43 42 39 37 36 35 35 33 33 33 33 35 42 45 44 41 40 40 39 39 39 39 39 40 45 47 48 49
1 1 1 1 1 2 3 5 6 8 8 8 8 7 5 5 3 3 5 5 4 3 3 2 2 2 2 3 3 3 3 3 3 3 3 3 3 3 5 10 17 23 29 19 13 9 8 8 7 7 8 8 11 13 17 20 20 17 14 14 14 13 13 16 18 19 21 23 24 28 30 30 31 31 33 42 43 42 40 39 41 42 43 42 36 32 32 33 32 31 33 36 33 27 23 23 24 29 29 30 30 28 25 17 15 13 13 13 13 13 13 13 13 13 12 10 8 8 8 8 8 8 8 8 8 8 8 9 13 11 7 5 5 5 6 6 6 7 7 7 7 6 7 8 8 13 12 11 9 3 3 3 5 3 3 3 3 3 3 3 3 4 5 6 5 3 3 3 3 5 6 3 3 3 3 3 3 3 3 3 3 3 3 3 3 3 3 3 3 4 5 5 6 7 7 8 9 9 8 8 8 11 14 18 15 10 8 8 8 8 8 8 8 8 8 8 8 8 8 7 7 7 7 7 8 8 8 5 5 8 8 8 7 7 8 7 5 6 6 6 5 5 5 5 5 5 5 5 5 6 6 7 7 8 8 8 8 8 8 10 10 10 10 10 10 10 11 11 10 10 10 10 11 12 13 13 13 13 14 16 15 15 16 18 15 15 15 15 17 18 15 15 15 16 17 18 20 22 23 18 18 18 20 20 22 33 38 33 33 37 34 37 30 28 23 23 23 24 27 37 40 29 27 28 28 28 31 33 33 34 35 35 35 37 38 40 42 44 47 48 51 53 57 68 73 75 75 75 75 77 78 78 78 78 78 79 81 84 85 80 79 78 78 78 78 81 85 85 85 87 88 89 88 88 71 47 43 43 38 37 37 35 35 35 34 34 35 40 47 48 49 48 48 49 47 44 41 40 40 40 41 44 47 51
1 1 1 1 1 1 3 5 5 7 8 8 8 8 6 5 5 6 7 7 6 3 3 3 2 3 3 3 3 3 3 3 3 3 3 3 3 3 5 7 11 17 23 27 17 13 13 11 9 8 8 8 9 13 15 18 21 23 21 20 22 22 22 18 18 22 23 24 28 32 43 43 43 42 43 43 36 39 41 38 32 32 32 30 28 28 28 28 28 28 33 41 34 32 36 38 37 33 31 23 25 28 23 18 20 23 21 15 13 13 13 13 12 11 10 8 8 8 8 8 8 8 8 8 8 8 8 8 8 6 6 6 6 6 7 7 7 7 7 7 7 6 6 8 8 10 12 15 13 11 5 3 3 3 3 3 3 4 5 7 10 13 13 10 9 8 8 8 5 6 8 6 4 4 4 3 3 3 4 3 3 3 3 3 4 3 3 3 4 5 5 5 7 9 12 13 14 14 13 13 12 13 15 18 15 11 8 8 11 11 10 9 9 9 8 8 8 8 8 8 8 8 8 8 8 8 8 7 6 6 7 8 8 8 8 7 6 7 6 7 7 6 6 7 7 8 8 8 8 8 8 8 8 8 8 8 8 8 8 9 10 10 10 11 13 17 17 16 16 15 13 13 13 13 16 18 18 18 19 20 28 18 15 15 16 15 15 15 15 15 15 15 15 16 17 19 22 23 24 28 32 27 23 23 25 28 28 32 36 28 27 25 28 23 23 23 24 26 30 28 27 25 25 27 28 28 31 33 35 33 34 34 35 37 38 40 43 45 47 49 52 55 65 63 58 61 63 65 68 76 78 78 78 78 78 78 78 78 78 78 78 78 78 78 78 81 85 87 88 90 90 90 82 65 48 46 44 46 40 37 36 35 35 35 34 35 47 54 55 53 55 55 54 55 54 52 50 45 44 44 45 45 45 45
1 1 1 1 1 4 5 6 7 9 10 10 11 10 9 8 10 12 12 11 7 5 4 4 4 4 4 3 3 3 3 4 4 4 4 4 4 5 7 9 11 17 25 30 33 33 30 21 17 17 15 18 16 13 13 15 18 17 19 22 24 26 27 25 24 25 28 32 33 33 31 33 34 32 31 30 28 28 29 30 29 32 32 28 25 30 30 25 30 39 45 46 47 46 41 30 23 21 20 18 20 22 34 35 35 27 17 14 12 11 11 10 10 10 10 10 9 9 10 10 10 10 9 9 9 9 10 10 10 10 10 10 10 10 10 10 10 9 9 9 9 9 10 10 10 12 17 20 20 14 10 10 9 8 8 10 12 10 9 10 13 18 20 16 16 16 15 13 10 10 9 9 10 9 8 8 8 7 7 7 6 5 4 4 4 5 5 6 7 8 8 8 10 12 14 17 20 21 22 21 20 20 20 20 18 15 12 14 17 17 15 13 14 15 15 14 13 13 13 10 10 10 10 11 11 10 10 10 9 8 9 9 9 10 10 9 10 10 8 9 8 6 6 6 6 6 8 7 7 9 10 10 11 11 11 12 12 11 13 13 14 14 15 16 18 19 19 22 26 20 18 17 17 17 17 19 23 33 27 17 17 17 17 17 19 19 20 24 25 25 30 31 24 20 19 20 44 50 49 40 48 31 24 33 40 35 26 27 31 28 26 25 27 34 35 37 48 50 40 30 30 37 31 30 32 34 33 39 38 36 37 37 37 40 40 42 43 44 46 48 50 53 55 58 64 73 77 75 77 80 80 81 81 85 81 79 75 76 76 77 80 82 86 85 86 87 87 90 93 91 85 80 73 54 49 48 45 43 42 39 37 40 38 36 38 37 45 52 57 57 58 59 57 60 62 60 57 52 50 53 57 57 57 57
1 1 2 3 3 4 5 6 7 8 10 10 12 10 11 9 13 14 12 10 9 6 4 4 4 4 4 3 3 3 3 3 4 4 4 4 4 4 5 6 8 11 13 16 19 21 22 23 25 26 26 33 25 21 18 18 15 17 20 22 26 30 32 30 31 41 45 36 30 26 25 26 26 25 27 29 26 25 25 25 26 29 30 27 25 24 21 26 33 35 30 31 32 33 30 25 20 20 17 16 15 15 19 17 15 14 13 12 10 10 12 12 12 10 10 9 9 10 10 10 9 10 9 9 9 10 10 10 10 10 10 10 10 9 9 9 9 9 9 9 9 10 24 24 23 21 19 22 22 19 10 10 10 15 18 19 16 13 10 10 12 17 20 17 20 21 21 16 12 10 10 11 11 10 9 9 9 8 8 7 6 5 4 5 7 7 7 8 9 10 10 11 10 10 12 14 17 20 23 30 29 25 24 23 19 15 12 16 20 20 16 15 16 17 17 16 15 15 14 11 10 13 11 10 11 12 11 11 10 10 8 8 9 10 11 10 10 10 10 10 10 10 8 7 6 7 9 9 8 8 8 8 8 7 9 9 10 10 10 10 10 11 13 14 15 16 17 19 20 17 15 15 15 15 15 16 17 15 15 17 20 28 19 20 23 26 29 40 44 40 41 40 31 35 47 25 22 24 20 19 20 20 20 20 22 24 25 27 25 23 22 25 32 47 52 54 50 30 28 27 27 27 28 30 38 38 33 33 35 36 37 37 37 37 38 39 40 41 43 45 47 49 51 57 60 70 73 74 76 75 76 76 78 77 74 73 80 81 80 82 84 84 85 87 90 90 89 90 93 92 89 87 70 50 48 46 44 42 41 39 38 38 39 35 42 41 52 56 58 62 62 64 63 66 64 58 54 52 62 82 91 81 71 64
1 1 2 4 5 8 10 11 12 11 12 12 12 13 15 12 12 12 10 10 10 6 4 4 4 4 4 3 4 4 4 4 4 4 4 4 4 4 5 5 6 8 10 11 13 15 18 23 19 20 22 25 30 31 26 21 18 19 22 21 24 30 43 46 45 37 30 28 26 25 23 23 23 25 26 27 25 23 23 25 30 33 31 28 25 25 20 22 29 29 26 25 23 26 25 25 30 28 24 20 17 15 14 14 13 13 12 10 10 13 11 10 10 9 10 10 10 10 10 10 10 10 10 10 10 10 10 10 10 10 10 9 9 9 9 9 9 9 9 9 10 13 16 20 24 29 30 27 22 15 15 16 14 20 26 25 21 17 12 11 14 19 20 18 19 20 24 17 15 11 13 14 14 12 10 10 9 10 10 8 6 5 5 8 10 10 10 11 11 13 14 15 14 13 14 15 17 17 22 29 30 30 30 23 18 15 14 20 22 20 18 17 18 18 18 17 16 17 17 15 15 14 13 13 14 13 12 12 11 10 9 10 9 9 9 10 9 9 10 10 10 10 10 10 8 7 9 10 10 11 10 9 8 8 8 8 8 10 10 10 10 10 11 12 13 13 13 13 14 14 17 18 22 40 50 43 30 22 20 18 19 18 20 19 21 25 30 51 52 49 55 51 44 41 48 54 52 46 29 22 22 27 23 20 21 23 28 28 26 26 29 25 27 28 28 26 26 26 26 27 27 27 29 30 30 30 34 37 36 35 34 35 37 37 37 38 40 41 42 43 45 47 49 51 55 58 60 62 68 77 75 72 70 70 80 81 82 83 82 85 87 88 88 89 90 95 91 98 96 88 82 81 72 51 48 46 44 42 41 40 39 35 34 34 42 55 57 57 57 61 67 67 67 67 65 62 57 54 62 72 82 91 97 96
2 4 5 7 8 9 11 15 15 16 16 16 15 14 12 10 9 9 6 6 6 8 5 4 4 4 4 4 4 4 4 5 4 5 5 5 4 4 5 6 7 8 10 11 11 13 15 15 17 19 20 24 28 35 26 23 21 22 26 27 26 26 26 27 27 26 25 26 25 25 21 20 22 24 25 25 25 21 21 24 25 25 26 27 25 25 20 19 20 21 25 26 24 21 18 17 18 18 23 21 15 15 13 13 13 12 11 10 9 10 9 10 10 10 10 10 10 10 11 11 11 11 11 11 11 11 11 10 10 10 10 9 9 9 9 9 9 9 10 13 20 22 22 23 27 31 27 19 18 22 28 33 38 35 29 24 20 17 14 14 17 19 23 20 23 29 23 18 19 15 19 19 18 16 12 11 10 10 10 8 6 7 7 9 10 12 13 17 18 18 21 19 19 18 20 20 20 19 19 22 30 27 23 19 17 18 18 20 25 23 20 19 19 20 19 19 20 20 19 17 16 15 16 15 14 12 12 11 10 8 10 10 9 9 10 10 10 10 10 10 12 11 11 11 11 10 8 8 9 9 10 10 9 9 9 8 8 10 11 10 10 10 10 16 19 19 16 16 16 20 22 27 39 48 53 50 40 31 30 43 29 20 28 23 26 30 49 60 65 70 69 51 47 49 53 59 51 50 29 27 32 28 27 24 23 31 20 21 25 27 30 34 30 27 25 25 26 26 26 27 27 27 28 29 30 30 32 31 30 30 32 32 34 35 35 36 38 40 40 42 44 45 45 46 49 51 54 60 67 70 70 68 63 77 81 81 81 80 80 81 82 83 86 90 89 91 99 97 94 92 90 87 68 50 48 46 44 42 40 40 39 35 35 37 45 55 58 62 65 68 70 70 67 64 60 57 59 66 67 76 98 101 102 105
5 6 8 10 14 15 14 15 15 19 17 15 13 12 12 12 10 10 10 8 8 4 4 4 4 4 5 5 4 4 4 5 5 4 5 5 5 4 5 8 10 11 15 16 17 18 19 20 20 21 22 24 25 33 40 29 25 26 27 27 25 25 24 24 22 22 23 22 22 23 21 20 21 22 24 25 23 21 20 21 23 25 25 28 25 23 20 19 17 20 21 23 25 24 21 18 16 16 15 15 13 12 11 10 10 10 10 11 11 10 9 9 10 10 10 11 11 12 12 12 12 12 12 11 11 11 10 10 10 10 10 9 9 9 9 9 9 10 19 20 23 26 30 32 31 23 22 21 30 40 50 47 41 32 26 21 23 23 18 20 22 25 28 33 32 23 24 24 18 20 31 30 23 18 15 13 10 10 7 8 9 10 13 15 17 22 22 26 28 30 34 33 27 24 27 28 29 32 29 25 24 21 20 20 21 22 22 29 28 23 21 24 25 22 23 29 31 28 26 22 19 18 16 14 12 11 11 10 10 8 8 8 8 9 10 10 11 12 13 14 13 12 12 12 12 13 13 12 10 10 9 10 9 10 10 9 9 10 10 10 10 11 14 20 29 28 29 28 23 26 29 35 41 48 52 53 51 52 59 50 46 27 27 34 51 51 47 53 53 51 42 40 40 40 49 57 50 29 29 27 27 35 40 31 23 20 20 21 22 22 22 20 21 27 26 27 28 29 28 28 28 28 27 28 28 28 29 29 29 30 30 31 31 32 33 35 36 39 40 41 41 40 42 45 48 50 53 54 55 56 56 57 69 76 80 80 76 80 83 86 88 86 87 90 93 95 97 94 90 90 90 90 59 49 47 45 43 42 41 40 35 35 36 37 48 56 62 67 70 72 72 71 66 62 57 62 76 97 91 96 102 107 107 107
10 11 14 15 14 15 15 15 12 15 15 13 12 10 10 10 10 10 10 9 5 4 4 5 5 5 5 5 5 4 5 5 5 4 5 5 5 6 7 10 13 16 18 18 15 17 18 20 19 19 20 23 25 25 34 40 31 29 28 28 26 25 24 23 22 21 20 20 20 21 20 19 20 21 21 21 20 19 20 22 23 21 24 25 23 20 16 16 19 20 20 22 24 27 28 23 23 20 18 17 16 11 10 13 13 12 13 13 9 9 10 10 11 11 11 11 12 13 13 13 12 12 12 11 10 10 10 10 10 10 10 9 9 9 9 9 11 20 21 23 25 29 30 27 26 30 29 23 40 45 54 49 40 32 27 25 30 24 20 30 31 30 41 35 30 31 30 23 19 21 28 26 18 16 12 10 10 9 8 12 20 21 20 29 30 34 37 37 34 35 41 47 40 38 41 40 33 31 29 30 28 24 26 26 28 30 37 33 32 33 30 31 33 35 35 37 38 35 30 24 20 18 16 14 12 10 10 9 9 9 9 9 10 10 10 10 10 11 13 14 14 12 12 13 13 14 15 15 15 14 13 12 11 11 12 11 10 10 11 11 11 11 14 16 20 30 48 54 52 50 48 52 56 51 39 40 53 59 48 41 38 25 29 34 39 47 51 50 42 43 40 40 40 42 35 33 34 39 45 56 54 60 56 42 30 24 22 21 21 20 19 20 22 23 24 25 27 30 30 29 29 29 29 29 29 29 30 30 30 29 29 30 30 31 32 33 35 36 37 38 38 40 42 44 45 46 48 49 50 50 52 58 69 81 82 83 84 84 82 85 87 89 90 90 95 97 94 92 92 91 88 70 53 49 47 45 44 43 41 41 40 40 40 39 58 62 66 67 72 75 76 72 67 64 59 77 103 107 103 103 106 104 100 111
12 14 16 16 15 15 14 11 10 10 13 11 10 8 5 4 4 5 4 4 4 4 5 5 5 5 5 5 6 5 5 6 7 5 5 5 4 6 7 9 12 12 12 13 14 15 18 18 20 21 21 21 21 25 27 42 37 31 29 26 25 25 25 28 25 24 22 21 20 19 20 18 17 19 18 18 20 23 26 26 23 20 20 24 20 17 15 15 20 22 25 25 28 25 20 18 19 17 15 13 10 11 15 15 15 15 14 10 10 10 10 10 10 12 12 12 13 14 14 14 13 12 11 11 10 10 10 10 9 9 9 9 9 16 28 30 27 26 28 27 29 32 37 40 34 28 26 30 40 43 49 47 42 35 29 31 31 25 23 29 31 43 45 44 42 38 31 26 23 31 23 19 17 17 17 16 11 14 8 9 13 15 16 16 18 20 21 25 33 39 44 47 50 49 44 40 41 38 34 37 30 29 36 37 42 48 48 49 44 39 40 46 54 53 49 45 40 35 32 26 21 18 17 16 11 11 10 11 11 13 12 11 11 13 13 13 12 14 16 16 15 14 15 14 15 15 15 15 17 17 16 15 12 13 14 14 12 12 12 12 13 12 13 15 18 19 20 21 30 29 25 21 22 24 29 40 56 60 48 37 27 27 28 28 30 40 39 36 39 41 40 40 47 40 60 70 64 67 70 74 70 56 47 42 34 28 25 22 22 23 23 24 25 26 24 25 28 32 34 31 29 30 30 32 34 31 33 35 35 34 30 30 30 30 30 31 33 33 34 36 36 40 41 41 42 43 45 46 47 50 50 54 58 65 77 80 81 83 86 87 86 90 92 94 97 97 94 92 90 85 75 59 50 48 47 45 43 41 41 42 41 41 40 39 51 66 70 76 77 78 76 73 76 72 67 70 66 67 80 82 72 82 87 87
15 15 15 13 12 11 10 10 11 10 8 5 5 5 6 5 5 5 4 4 4 5 5 5 6 6 5 6 7 7 5 5 8 6 5 6 5 5 5 5 7 11 14 16 18 20 20 18 15 15 18 20 20 25 30 40 36 30 28 26 25 25 27 28 27 25 23 21 21 22 20 19 19 16 15 16 21 21 24 21 20 17 19 20 21 20 17 15 17 26 34 30 23 22 17 15 12 15 15 11 10 16 15 13 12 13 10 9 10 10 11 11 11 12 13 13 14 14 15 15 14 12 11 10 10 10 10 10 9 9 9 9 9 26 32 36 37 36 36 40 47 50 44 32 30 30 30 30 36 38 40 48 50 41 37 34 30 29 32 32 34 40 47 53 48 40 31 28 40 31 20 23 29 26 25 21 19 14 10 8 9 15 20 21 24 26 22 20 26 30 33 43 58 60 58 53 46 41 45 45 37 39 53 55 60 70 60 50 46 48 54 64 51 49 44 40 30 28 27 22 24 26 23 16 13 14 15 15 16 16 16 15 15 16 16 15 16 18 18 18 16 16 17 16 16 16 16 17 17 18 17 16 15 15 16 17 16 14 14 13 14 14 14 15 16 16 17 18 18 19 19 20 22 24 26 29 30 30 28 28 28 30 31 31 33 35 39 53 60 56 65 70 64 40 46 55 60 66 64 71 65 43 41 39 34 28 24 24 23 24 25 27 29 32 31 26 26 27 30 29 28 29 30 30 33 34 36 39 40 40 38 34 33 31 31 30 31 32 32 34 35 38 38 40 40 41 42 44 46 48 49 51 54 56 61 79 81 82 82 80 86 90 90 91 95 95 91 91 90 80 60 53 49 48 46 44 43 43 43 43 43 41 40 40 62 83 86 92 93 87 82 87 106 105 84 81 87 91 86 76 69 81 100 101
16 15 14 15 15 14 15 15 11 6 5 5 5 9 8 7 6 5 5 5 5 5 7 8 8 8 8 8 9 9 8 5 5 10 5 6 7 7 7 7 8 10 11 15 15 15 12 14 16 18 18 21 24 28 34 41 35 31 27 25 26 27 27 25 24 22 24 25 30 28 25 22 22 20 17 17 15 16 16 19 19 17 16 18 18 18 17 15 20 26 27 19 16 15 13 15 16 15 13 12 10 10 12 14 10 10 10 10 10 10 11 12 12 13 14 14 15 21 24 23 15 14 12 10 10 10 9 9 9 9 9 9 9 23 36 40 41 37 32 39 41 46 45 40 40 39 39 36 40 48 52 58 50 43 40 41 35 36 49 47 44 48 46 50 43 32 30 40 41 29 22 34 37 31 26 20 17 21 17 9 8 11 17 21 27 32 28 32 35 30 34 40 58 70 68 60 55 65 60 50 42 39 46 60 66 67 63 66 67 64 59 52 41 34 31 30 34 38 37 40 42 36 20 17 14 15 16 18 20 19 18 17 18 18 18 17 18 21 20 19 18 19 18 17 17 17 17 18 18 19 18 17 16 17 18 18 19 17 15 14 15 16 17 17 16 18 19 20 20 20 25 30 40 37 31 28 29 29 29 30 38 42 54 64 53 50 58 70 70 75 70 50 41 50 65 67 67 54 52 54 51 50 39 32 27 26 27 27 25 23 24 27 30 39 36 32 31 30 28 28 28 30 29 29 31 32 34 36 39 40 41 42 40 38 37 37 38 37 36 33 34 35 36 37 38 40 41 42 42 43 44 47 49 52 56 60 67 71 70 80 82 82 90 91 93 95 94 94 90 80 57 50 49 47 46 46 45 45 45 43 42 41 41 46 92 107 107 110 101 102 111 117 121 120 111 117 122 116 112 87 74 74 91 111
18 16 15 11 10 15 15 8 5 5 6 7 7 8 8 7 7 6 6 7 8 6 7 10 10 10 10 10 12 13 11 9 7 10 8 6 10 10 10 9 8 9 10 10 11 12 15 16 19 23 24 24 27 30 37 47 38 31 30 27 29 28 25 25 25 25 32 35 31 29 26 21 20 20 20 20 19 18 17 15 16 15 15 15 15 15 15 15 14 14 15 14 14 13 14 14 15 15 15 14 12 10 10 9 9 9 10 15 15 10 12 13 13 14 15 19 30 42 36 33 30 23 15 13 12 11 10 10 10 10 10 10 9 10 31 35 35 24 30 36 40 48 50 51 52 49 45 44 43 48 58 64 57 53 54 50 42 44 53 60 59 50 47 45 38 33 43 43 31 27 36 43 40 35 28 21 19 20 17 12 12 12 23 30 41 41 39 44 40 40 45 48 59 74 73 72 75 71 60 53 50 49 43 48 52 64 60 55 49 43 42 44 46 40 34 41 55 55 52 50 37 34 41 31 15 15 17 18 20 20 19 20 21 21 23 23 21 24 28 28 28 24 20 19 18 19 19 19 20 21 19 19 20 20 23 22 21 20 17 16 17 18 19 19 23 26 27 25 26 42 41 37 48 51 48 33 60 69 70 76 80 80 80 75 76 80 73 60 57 56 51 45 43 55 62 62 58 61 60 50 40 34 30 30 36 37 35 31 29 24 24 26 28 33 40 40 39 36 33 32 31 30 31 29 30 30 31 33 35 38 40 40 46 47 41 41 42 42 41 41 45 39 36 36 36 37 37 38 40 42 45 45 46 49 52 55 59 60 63 66 70 81 82 85 89 93 97 94 90 73 59 52 50 49 48 47 47 46 43 42 41 41 44 48 72 107 112 112 112 110 109 117 121 123 122 125 122 112 106 87 82 79 92 92
14 12 10 9 8 6 5 6 7 8 9 10 9 9 9 10 10 8 9 9 12 10 11 9 11 11 12 13 14 15 14 11 9 10 10 8 10 13 14 13 14 13 10 11 13 15 18 20 20 20 20 21 23 29 39 49 48 41 33 32 30 28 30 30 29 31 28 26 26 25 22 20 23 22 23 23 23 21 20 18 18 18 17 17 17 17 15 15 15 17 15 15 14 15 14 12 13 13 13 12 10 11 10 9 9 10 12 14 15 12 13 14 14 16 24 35 54 46 31 27 24 24 25 23 17 16 14 12 10 10 10 10 11 10 9 9 10 30 38 47 55 60 60 52 51 52 53 55 51 50 52 60 69 67 61 54 47 60 67 71 71 62 53 43 38 43 45 38 30 32 50 50 46 39 32 26 20 19 20 16 14 10 17 30 38 53 60 58 57 55 61 60 55 47 50 57 70 80 73 68 60 53 49 53 67 70 60 58 58 59 53 42 40 45 49 55 51 45 45 47 49 49 41 19 15 17 24 30 30 28 29 30 32 32 33 31 29 31 34 35 33 32 25 22 20 20 21 22 24 24 23 24 24 25 27 27 26 21 18 18 19 26 40 63 70 70 71 49 49 51 46 50 68 63 50 39 48 46 60 71 61 60 71 70 67 69 72 65 62 52 48 53 56 58 64 58 49 54 60 39 30 35 48 50 50 42 36 30 28 25 24 26 28 30 39 44 43 44 41 39 37 36 39 37 34 30 30 35 40 42 42 42 45 48 50 49 48 50 48 50 51 49 49 43 39 37 37 37 39 40 47 48 47 48 50 52 55 56 55 58 68 68 78 80 90 93 95 97 97 93 77 57 51 50 50 49 47 44 42 42 42 43 47 76 106 108 113 115 114 114 113 118 122 126 127 123 112 102 111 102 91 82 82 81
8 7 6 5 5 5 5 10 10 10 11 12 10 10 14 15 13 13 16 14 15 14 15 11 10 11 15 17 18 16 15 10 9 10 11 10 10 17 19 18 20 20 16 12 11 12 15 15 17 19 21 26 30 35 40 47 53 41 37 35 33 36 36 33 30 30 27 25 24 23 24 23 23 25 29 29 28 25 22 21 20 20 20 20 22 26 22 21 22 23 19 18 17 15 15 11 11 11 10 10 10 10 10 10 10 10 10 11 12 13 14 15 18 27 40 56 53 42 43 43 38 32 27 29 38 31 28 21 15 13 13 13 12 10 9 9 9 28 40 34 30 36 40 50 54 56 56 58 60 60 60 65 70 63 56 58 70 62 54 50 47 43 44 43 51 54 50 49 40 30 50 60 57 49 39 30 26 22 20 17 12 10 10 20 36 45 43 44 51 58 50 48 40 33 42 59 76 70 65 73 70 63 59 59 60 72 71 67 54 45 48 50 53 60 60 59 57 60 59 57 60 45 19 16 17 28 33 37 36 35 35 37 39 39 39 38 38 40 42 42 38 33 33 31 30 26 25 28 29 29 30 31 30 34 34 32 30 25 18 18 20 45 37 50 60 62 62 70 70 68 60 60 77 70 57 43 40 46 48 54 54 54 66 69 78 77 66 59 53 56 60 67 65 59 64 60 45 37 37 30 30 34 50 54 50 50 38 30 27 24 25 26 29 34 45 49 50 50 47 47 42 41 43 43 41 36 33 31 37 40 42 46 50 52 57 59 57 57 57 57 56 56 55 51 47 46 40 39 38 40 40 44 48 49 50 51 50 50 51 52 55 60 67 80 90 90 95 100 97 77 65 59 55 54 51 50 47 43 43 42 43 46 50 100 102 102 102 104 110 113 119 123 125 126 123 113 113 109 102 99 92 88 86 82
7 7 6 8 10 10 6 10 11 12 14 15 12 14 16 19 20 20 24 23 19 18 16 15 10 13 18 18 17 15 11 11 10 10 12 13 11 10 13 18 20 21 17 17 17 14 15 20 25 28 27 27 27 32 36 48 47 40 35 33 41 50 48 40 37 32 30 30 27 26 27 29 26 27 27 27 26 25 23 22 22 23 25 27 30 31 30 30 29 27 24 21 18 16 13 10 10 10 11 10 11 11 11 11 10 10 10 12 13 14 15 16 20 30 43 60 60 60 56 46 43 47 49 42 29 23 23 21 19 19 18 16 14 10 10 9 11 18 20 31 44 46 51 55 57 54 54 56 57 60 57 55 61 70 73 64 57 52 49 48 52 50 61 61 64 61 59 51 40 32 49 57 60 51 40 31 26 23 21 26 21 19 12 10 19 27 30 22 27 31 28 24 25 36 60 60 50 52 68 69 70 73 73 70 67 74 67 58 54 63 59 66 70 56 50 60 63 53 41 33 41 28 17 19 30 27 29 36 35 35 40 44 47 48 50 52 52 53 50 41 42 40 38 36 32 30 32 40 52 50 43 43 51 64 70 60 48 44 24 19 19 21 29 37 50 37 45 66 62 73 70 61 54 50 48 46 60 63 76 74 62 60 76 76 77 73 67 61 65 65 60 55 53 48 47 48 36 30 30 34 36 36 45 58 55 50 36 30 26 25 25 27 29 31 36 40 50 55 53 50 43 50 51 52 50 42 39 38 35 34 33 40 45 55 60 61 60 56 52 55 60 62 60 60 59 53 47 44 42 41 40 40 41 44 47 47 48 48 49 50 51 55 59 66 80 90 96 94 78 69 65 62 59 56 54 51 46 44 44 44 45 47 55 73 101 101 101 102 115 125 131 132 131 131 129 122 114 108 101 101 101 94 92 91
11 10 11 11 11 12 8 10 12 15 16 17 15 15 17 19 20 24 27 23 21 19 16 16 15 12 17 15 14 14 13 12 13 12 13 15 15 13 10 16 20 24 23 25 24 20 15 18 21 23 25 28 35 40 50 46 44 47 35 30 31 41 42 35 30 29 33 32 31 28 28 29 25 24 24 24 24 24 24 26 30 33 37 32 31 27 23 20 19 18 16 14 12 11 10 11 12 12 13 12 12 12 12 11 10 10 11 14 15 17 18 19 20 30 45 60 61 61 53 45 38 30 28 27 29 28 25 24 23 21 20 12 10 10 10 11 13 15 20 41 43 40 47 50 41 42 49 53 57 53 48 52 59 70 65 58 60 59 54 61 64 61 61 53 45 43 40 39 38 42 60 63 51 39 32 30 28 27 25 32 30 28 17 11 9 9 10 13 15 15 17 17 25 36 41 32 27 31 34 40 43 52 68 79 72 66 60 52 51 56 58 60 41 46 34 36 41 29 20 18 17 17 20 33 46 50 50 42 40 31 43 50 52 57 61 62 58 51 45 45 42 40 39 38 36 37 45 60 70 62 73 81 79 70 60 60 51 39 24 20 24 29 33 35 39 41 48 50 62 75 72 77 70 73 60 47 61 80 78 71 70 71 77 81 78 73 74 71 68 62 53 45 40 40 37 32 31 37 40 50 45 45 57 58 48 38 34 30 25 25 27 28 30 33 37 42 50 60 57 50 48 55 60 57 48 44 50 48 43 39 34 34 36 38 38 38 39 40 44 51 50 50 46 50 53 54 53 51 48 45 43 45 48 48 48 47 49 51 50 52 53 60 62 70 87 92 95 84 74 71 68 65 61 60 58 46 44 44 45 46 47 47 49 55 101 101 102 102 114 126 131 120 121 132 132 124 120 123 122 111 103 102 92 92
12 11 14 15 15 14 10 9 13 17 20 23 20 20 20 25 27 26 27 25 24 22 21 22 20 15 15 16 18 17 15 13 15 14 14 16 17 15 13 15 15 20 22 25 26 24 20 20 26 29 30 33 33 42 52 38 35 37 41 34 28 30 35 32 28 25 26 30 28 24 24 25 23 21 20 23 24 25 29 35 37 31 30 26 22 20 19 17 16 15 16 13 10 10 11 13 14 15 15 15 14 13 12 12 11 11 18 19 19 24 30 28 26 26 35 50 62 57 48 38 34 41 39 30 26 22 20 21 20 10 9 10 11 12 14 17 15 17 19 19 18 19 20 24 31 41 36 36 41 40 52 58 62 70 68 73 77 72 71 66 60 51 45 44 47 46 56 51 60 60 68 70 52 40 33 32 31 33 32 31 26 21 14 10 10 13 14 20 24 28 23 19 17 19 20 22 30 36 40 46 51 53 65 73 60 50 44 41 35 31 34 32 31 31 28 21 18 17 18 19 27 30 39 48 54 56 53 50 52 34 41 51 54 57 59 58 57 55 51 60 56 50 47 44 48 50 62 81 86 80 71 70 74 73 70 50 35 24 30 35 38 39 40 48 75 84 81 90 92 93 96 93 94 80 64 56 52 57 74 80 80 82 80 80 70 60 65 62 67 71 57 45 39 34 34 39 40 42 58 69 67 66 60 52 42 35 30 26 26 26 27 27 28 30 32 39 43 53 55 56 61 66 61 54 53 57 53 46 40 38 36 36 40 42 45 43 40 39 39 39 40 40 40 43 45 47 50 53 51 47 51 58 58 59 57 50 50 60 57 62 61 67 80 81 81 80 78 74 72 71 70 66 63 60 51 44 44 44 45 46 47 49 50 56 107 103 102 102 102 102 103 102 121 123 132 132 131 130 131 133 115 102 99 93
15 16 16 17 15 15 10 12 15 17 21 27 29 27 31 29 32 32 30 31 30 29 27 18 15 15 16 20 21 19 15 15 15 15 15 19 20 19 15 15 19 21 24 26 30 30 27 28 26 25 29 32 36 40 53 45 34 30 35 29 25 28 35 28 25 23 25 28 25 24 24 21 20 20 22 27 29 30 35 31 27 24 22 20 20 20 20 19 16 15 12 11 10 12 14 15 15 15 15 15 15 14 13 12 11 15 19 23 26 30 40 45 43 32 31 40 62 61 48 46 58 58 44 30 25 20 18 17 13 10 11 14 15 16 20 29 20 20 35 37 36 27 37 31 25 26 49 51 51 57 58 60 61 73 86 80 70 60 55 53 52 51 62 63 53 59 70 73 72 70 54 58 45 33 30 27 26 24 23 20 22 16 10 10 24 27 21 22 26 30 30 24 21 24 21 23 28 29 31 33 37 39 43 50 52 51 48 40 38 46 57 53 53 40 28 19 18 19 30 44 52 53 55 59 60 60 57 60 40 54 59 65 68 67 66 69 72 75 80 81 73 68 60 69 80 80 74 87 80 54 49 58 60 45 46 41 29 24 30 40 43 47 60 80 92 80 87 69 90 94 97 85 82 78 66 75 77 68 81 80 70 70 60 72 67 59 52 49 50 50 41 36 38 37 38 44 50 60 59 57 54 50 50 42 33 30 27 26 26 27 28 29 30 31 32 34 37 41 50 65 72 77 72 71 64 54 50 43 45 45 40 38 38 40 45 49 49 48 46 45 46 45 42 43 46 50 55 57 51 51 60 72 75 71 63 55 58 67 63 80 76 77 80 86 86 86 86 84 82 80 71 64 60 60 60 56 45 44 45 46 48 49 53 69 108 106 108 109 107 105 96 97 96 94 101 102 113 131 132 132 131 121 121 119
20 19 20 19 16 15 12 13 15 17 21 24 25 28 36 40 35 30 26 24 30 22 16 17 19 18 21 24 23 20 18 17 15 15 17 18 20 18 16 15 18 20 23 25 26 29 30 35 36 33 35 41 39 48 55 53 43 32 28 26 24 26 34 33 25 23 22 23 24 25 23 21 20 21 30 33 27 28 35 31 26 21 21 19 18 16 15 14 12 11 10 10 12 14 15 16 16 16 15 15 15 13 13 12 14 15 16 19 27 41 46 44 42 40 48 53 64 60 60 62 61 52 33 27 23 23 21 16 10 10 13 17 25 23 27 44 28 23 54 65 61 45 54 58 45 28 28 34 40 46 54 67 77 80 74 69 62 60 65 65 61 65 72 69 65 71 74 74 62 52 42 38 32 31 30 30 29 28 27 29 20 13 14 21 30 33 31 36 39 41 33 25 32 28 42 40 35 34 34 30 41 48 46 40 42 57 49 42 49 65 50 40 33 20 20 18 19 30 46 56 63 66 64 71 72 71 71 57 42 49 49 51 60 58 60 60 66 71 71 88 98 91 95 86 63 69 63 50 47 43 43 41 42 31 28 26 34 35 40 34 38 36 40 43 44 48 45 54 56 59 63 59 65 73 78 74 75 80 80 73 67 60 55 50 50 61 50 41 39 38 37 39 46 40 42 50 51 51 43 40 39 37 35 33 31 30 27 27 29 28 28 29 30 32 36 39 40 50 60 72 71 62 60 59 50 48 46 47 51 51 45 42 40 39 46 50 54 57 56 54 53 50 47 46 46 50 60 59 55 59 69 84 80 70 63 57 80 72 81 97 94 90 86 91 91 87 81 78 76 74 73 68 65 63 65 58 50 46 47 49 49 50 54 60 121 121 121 121 121 122 122 122 122 110 98 102 131 126 112 112 109 121 141 146
19 26 23 21 17 15 17 17 20 17 20 29 32 37 40 42 36 31 28 23 19 19 21 21 22 21 24 26 27 25 22 20 16 16 17 19 20 22 20 20 19 25 26 29 29 28 37 41 45 46 40 51 51 51 55 55 51 41 39 34 25 23 23 23 23 22 21 20 20 20 20 20 21 23 25 24 25 21 24 26 20 20 20 18 17 15 12 12 11 10 10 12 14 15 16 17 16 16 15 15 14 15 16 18 18 18 18 18 20 25 29 31 34 40 51 67 71 67 60 50 46 30 21 22 28 21 16 12 10 13 19 40 60 40 33 56 51 36 32 55 64 62 68 75 57 31 37 57 63 50 68 80 85 76 71 70 70 82 80 79 77 73 65 60 73 77 60 61 60 56 46 41 39 33 38 32 30 32 30 21 16 13 20 31 34 42 53 56 44 33 29 47 36 37 43 43 40 41 38 35 39 57 55 52 54 66 69 70 72 65 50 41 31 21 19 19 20 35 52 62 70 79 73 80 75 71 60 47 62 71 69 60 60 64 61 67 75 80 85 90 87 71 70 66 66 50 50 52 60 60 60 54 34 27 25 41 50 42 50 51 52 54 50 47 53 41 46 50 50 51 64 65 71 81 78 73 64 59 61 65 56 51 50 46 44 39 39 39 40 47 49 48 47 50 56 53 47 44 41 41 39 35 33 30 28 28 27 30 39 40 37 33 31 31 34 37 40 42 44 46 50 51 55 53 52 52 53 53 55 58 51 46 42 40 45 50 56 61 62 60 59 60 57 51 49 66 70 68 63 61 80 93 80 67 60 70 89 82 76 91 101 101 102 100 95 87 83 82 82 80 75 81 71 69 65 60 53 57 56 53 51 50 55 60 121 121 121 121 122 122 132 132 132 129 122 111 100 103 98 101 121 142 152 161
20 23 27 22 22 20 17 17 20 20 22 26 31 36 46 48 34 29 24 20 20 26 26 26 24 25 30 31 30 27 23 19 19 20 20 20 22 24 24 20 19 23 29 36 35 35 34 40 47 54 60 56 50 45 35 32 34 31 28 30 34 30 32 27 29 24 27 26 23 20 20 19 20 20 20 19 19 19 19 18 19 20 17 15 15 12 11 10 10 11 12 14 16 17 17 17 16 16 15 16 17 16 18 22 27 26 26 23 22 23 30 35 43 53 68 75 70 58 53 42 34 30 23 19 11 10 11 10 14 19 43 70 70 60 50 71 71 60 46 39 51 70 90 65 40 29 57 84 85 68 74 80 88 82 84 80 86 80 70 71 56 49 41 40 50 53 42 34 30 30 26 26 23 27 26 23 26 32 28 19 17 31 33 43 64 58 48 41 34 30 51 50 39 47 50 60 52 43 49 51 50 65 71 77 78 71 77 68 59 50 51 51 40 23 21 25 38 48 57 66 75 87 88 82 63 62 47 60 67 72 73 76 66 71 71 70 71 79 87 76 80 80 71 59 56 64 69 63 72 66 52 32 26 27 43 50 58 50 51 55 58 66 60 59 50 47 60 68 61 58 67 74 80 70 63 65 63 56 51 50 48 48 47 44 45 46 48 54 61 60 66 58 57 58 50 52 50 50 41 37 34 30 30 29 30 29 28 29 30 30 30 37 34 34 36 38 39 41 48 50 51 52 50 49 50 50 50 51 57 59 50 47 46 43 43 48 56 62 66 63 65 68 62 54 56 79 78 72 67 70 85 95 74 62 68 72 91 95 87 95 112 114 110 100 95 92 84 80 80 81 86 85 82 81 74 60 54 64 62 57 53 51 57 64 121 121 122 127 132 135 144 152 152 151 151 132 122 122 122 82 102 122 121 140
25 24 30 30 25 21 18 20 20 21 25 29 40 54 51 40 30 25 23 22 23 29 32 30 27 25 32 31 27 25 21 21 24 24 20 20 25 27 26 24 21 21 24 27 31 38 42 45 59 55 53 56 55 48 35 29 25 24 24 28 37 42 34 30 29 28 38 35 26 23 23 22 20 20 21 21 20 20 19 20 17 16 15 14 12 12 11 11 12 14 15 16 17 18 18 17 16 16 17 22 21 18 20 28 37 30 30 30 30 30 37 50 57 69 78 55 41 38 29 22 23 22 17 9 9 10 10 19 52 53 47 74 84 79 80 83 82 70 68 48 66 93 92 70 56 38 36 74 94 85 90 83 80 72 84 80 73 63 57 51 46 43 40 39 31 32 30 30 35 37 33 30 29 24 20 20 19 17 15 15 23 30 39 40 50 49 45 40 49 56 69 55 43 60 79 77 70 80 76 71 65 52 50 70 62 53 50 46 42 41 40 31 22 23 29 40 50 70 73 75 83 94 97 91 80 60 50 71 73 70 80 83 73 79 81 82 84 82 75 78 68 63 60 62 70 88 86 78 64 61 37 26 29 48 59 61 65 62 63 71 69 70 67 66 52 58 63 72 73 66 74 70 67 65 60 58 58 57 56 56 57 59 59 56 57 67 67 60 59 54 48 45 48 52 43 40 40 37 34 30 30 30 33 31 31 30 29 30 30 30 32 39 37 38 41 38 39 43 46 45 44 43 45 47 48 50 51 56 59 57 54 55 51 47 46 50 56 66 70 68 80 72 59 55 64 77 90 81 75 89 100 82 73 70 63 75 84 96 94 94 108 100 96 92 89 81 80 87 92 90 87 81 76 80 62 53 58 55 57 54 51 57 63 76 123 122 123 128 135 142 142 151 151 152 152 151 132 159 151 93 92 114 142 159
31 28 39 29 22 18 19 21 22 28 26 30 40 50 50 36 30 26 25 27 29 30 36 31 32 35 35 29 25 25 24 25 29 28 24 22 25 33 30 26 23 25 27 35 42 44 45 55 51 50 39 47 37 45 39 36 31 27 24 24 32 35 25 25 25 20 25 24 25 23 21 21 20 20 20 20 20 18 16 16 15 13 13 12 11 11 13 15 16 18 19 19 19 19 18 17 17 19 26 29 25 20 22 31 42 36 30 36 43 44 50 40 34 40 50 44 28 22 20 18 19 17 12 10 12 13 14 27 65 80 81 86 90 84 87 96 90 89 76 62 77 97 96 80 50 47 36 60 63 80 90 70 57 48 58 60 54 48 42 59 60 54 52 49 46 40 41 40 35 33 31 29 25 20 17 17 18 19 18 17 18 27 28 43 60 64 50 58 81 86 80 72 64 81 83 80 76 69 60 48 40 40 40 40 37 33 34 39 33 30 25 22 24 30 62 77 79 90 92 88 94 103 90 79 80 56 56 70 80 80 101 92 100 90 80 85 70 71 64 70 70 73 77 90 82 80 85 82 76 61 26 27 52 63 63 60 58 59 65 75 84 86 74 63 60 70 76 89 92 90 87 81 74 70 71 68 69 67 70 78 76 79 74 72 70 73 69 60 56 56 55 50 44 40 36 34 32 31 30 30 37 39 35 34 32 32 34 37 34 37 41 47 42 39 42 44 43 41 42 43 44 45 46 48 49 50 56 60 64 65 79 67 52 51 61 61 59 70 71 79 85 68 58 65 60 80 94 100 89 101 102 96 85 75 70 70 81 79 83 100 99 92 91 88 88 85 90 94 90 88 88 84 76 84 57 85 97 54 51 50 57 63 68 93 126 127 129 131 131 132 138 150 152 162 162 162 152 172 162 130 92 101 121 142
30 34 40 28 23 20 29 28 31 35 33 36 37 40 35 31 30 32 30 30 35 44 41 40 43 38 30 30 30 29 27 30 33 31 27 23 30 33 28 25 27 27 32 41 55 56 51 55 42 35 29 36 30 26 31 40 43 40 36 26 22 22 22 23 22 21 23 21 20 20 20 19 20 20 20 20 20 18 17 16 14 12 12 15 19 19 17 20 21 28 27 20 20 19 20 22 20 20 30 34 27 24 22 28 37 45 41 40 53 65 50 39 37 36 28 22 20 15 15 12 12 12 11 14 18 19 20 22 21 28 29 35 35 37 40 63 88 94 94 78 71 92 100 76 80 60 42 38 57 75 82 63 53 48 40 38 45 41 37 36 40 32 30 36 36 40 31 34 31 28 27 29 19 18 26 35 33 27 25 23 20 37 44 70 83 75 56 49 70 80 79 70 65 70 60 54 50 45 46 45 50 51 51 50 44 43 40 39 34 30 24 24 30 47 87 96 97 105 106 104 110 116 94 84 77 58 78 90 93 104 109 109 98 81 80 73 81 77 74 78 87 94 90 80 71 64 60 80 74 51 27 27 40 52 64 61 68 70 67 67 70 80 80 72 80 74 85 86 79 77 71 71 70 80 84 78 86 79 80 80 73 62 60 64 68 68 71 70 67 65 59 50 40 35 34 33 33 36 45 49 42 39 37 35 34 35 36 39 40 42 46 50 50 45 44 49 49 49 50 49 51 50 49 50 52 57 65 70 71 72 77 60 53 65 71 68 67 84 93 92 74 61 70 80 76 68 83 90 98 110 119 112 100 83 73 74 80 80 84 96 102 100 94 93 92 98 100 97 96 98 91 92 101 101 59 93 102 48 48 49 52 59 66 110 121 122 130 131 131 140 154 162 169 172 172 172 167 171 163 152 113 91 93 107
42 38 31 25 20 24 35 32 31 40 47 48 41 35 32 43 40 45 39 34 38 50 52 45 36 34 45 40 41 36 38 38 35 30 26 33 37 32 30 27 35 36 40 49 49 45 35 32 33 25 32 35 28 24 28 41 39 39 32 25 23 21 20 20 20 20 20 20 18 18 19 18 18 19 19 19 18 16 15 15 15 19 18 26 25 19 20 27 30 27 28 25 22 20 30 26 20 20 32 44 38 32 28 30 40 40 34 38 47 45 42 42 37 29 23 20 17 12 11 12 14 16 18 50 60 62 40 29 30 27 42 52 38 30 35 37 41 54 88 90 97 101 100 90 63 48 40 38 47 61 61 57 50 47 50 46 41 34 34 32 30 29 27 27 27 23 20 20 21 22 19 17 19 51 51 42 40 39 33 30 22 49 74 73 77 74 60 50 57 71 70 56 49 46 59 58 58 59 58 51 59 51 44 43 47 38 33 36 29 25 24 26 30 72 88 98 100 111 113 114 100 81 72 70 63 59 73 71 90 91 90 96 102 91 83 83 83 86 90 97 96 88 80 79 81 73 68 46 40 30 28 27 52 62 67 71 75 79 80 80 83 84 91 97 85 79 88 85 80 79 82 80 83 85 80 80 80 86 89 81 71 63 58 52 58 55 56 50 43 47 38 36 36 37 39 42 39 40 54 51 46 42 40 36 37 39 38 44 47 48 49 57 53 50 54 53 57 60 60 58 55 56 59 62 64 68 70 64 60 58 56 60 63 73 77 76 90 101 96 82 75 70 69 90 91 82 80 77 84 106 106 90 80 79 80 90 92 90 87 101 110 104 108 110 100 109 103 102 104 101 103 110 114 108 65 85 100 47 48 49 50 58 70 103 124 132 132 132 132 142 152 162 166 172 180 182 173 171 154 122 102 140 104 102
37 30 25 23 28 27 23 25 30 40 51 55 40 40 40 54 58 52 50 50 60 55 50 43 37 50 55 58 56 50 48 47 37 30 39 45 42 35 31 33 35 42 55 56 53 45 34 25 23 23 24 24 23 23 23 24 24 25 24 20 20 20 20 20 20 20 19 17 16 15 17 18 19 18 17 16 15 15 15 20 30 24 27 34 28 25 26 31 34 40 30 22 20 32 33 24 22 24 29 43 44 38 32 35 30 30 27 20 22 23 24 21 20 18 17 15 12 13 13 14 16 18 22 31 42 58 50 55 38 54 90 86 52 38 33 44 59 70 80 99 106 90 68 51 41 39 39 66 60 52 51 46 43 41 40 39 34 33 29 31 32 32 32 31 29 20 19 19 17 17 19 26 53 57 54 59 48 38 32 30 24 28 43 45 58 60 63 63 62 69 59 61 55 42 41 40 50 58 70 64 56 49 44 48 48 40 36 30 26 24 24 28 40 70 55 64 80 93 110 114 95 87 83 92 79 68 87 80 94 101 101 101 109 110 99 93 99 102 98 90 84 94 92 91 84 70 47 60 71 32 28 28 50 70 70 71 79 89 82 73 73 77 87 96 91 92 99 89 84 88 94 90 85 80 70 64 70 78 64 60 56 50 50 47 48 41 41 40 40 42 40 41 40 40 40 46 53 53 53 48 44 39 37 39 44 44 45 55 58 69 66 57 54 65 60 59 69 65 62 60 60 60 64 67 69 68 67 67 61 60 57 70 80 85 90 96 110 112 103 100 83 70 61 76 93 97 91 95 97 104 91 81 88 80 80 86 95 103 91 106 113 111 108 103 101 100 97 96 101 108 110 113 113 111 73 70 86 49 48 49 50 50 73 120 132 138 132 133 142 151 161 166 174 182 181 172 162 138 117 113 143 144 134 104
31 31 27 29 34 40 36 30 33 49 49 43 50 65 72 90 90 75 75 79 72 68 55 50 54 63 77 85 77 65 52 45 39 36 37 46 39 36 45 47 45 55 55 49 41 37 33 25 22 20 22 21 20 20 20 20 20 20 20 20 19 20 20 21 20 19 18 15 16 15 15 15 15 15 15 24 24 22 25 34 28 26 40 40 40 38 40 44 39 30 27 29 46 41 30 29 38 37 36 48 56 45 41 36 28 22 19 18 18 19 17 16 15 13 12 12 14 16 17 18 19 20 21 50 81 91 86 62 40 50 79 82 56 40 39 51 80 102 111 109 94 69 51 44 46 45 62 53 45 40 41 38 38 36 33 35 36 34 31 33 30 23 18 18 18 18 18 18 20 21 33 46 63 63 55 42 38 36 40 36 30 31 30 30 31 31 35 40 58 64 58 54 50 51 48 45 40 50 64 64 60 60 52 52 48 37 28 28 30 26 25 28 30 41 60 72 87 86 90 100 108 97 96 83 72 94 101 97 100 102 116 114 120 114 111 106 98 90 90 77 70 88 92 90 80 60 60 79 57 31 29 29 36 50 70 81 88 84 70 73 90 90 94 86 85 92 100 99 100 100 95 90 85 83 79 70 80 79 73 79 71 67 70 65 56 44 50 59 59 57 57 49 53 52 58 60 54 45 41 40 40 42 48 58 52 50 58 64 74 68 60 56 73 71 62 60 71 69 65 61 62 66 70 80 75 74 81 64 73 79 65 59 70 76 83 95 120 110 104 84 76 78 71 73 72 80 74 85 101 94 91 96 92 98 91 93 99 110 113 112 109 108 107 105 101 101 100 100 93 101 101 104 105 82 70 110 60 48 49 50 53 58 69 120 132 138 136 135 134 142 176 182 182 182 182 172 161 121 121 172 172 172 173 131
31 31 30 40 45 45 40 35 45 62 54 62 78 110 118 99 76 72 76 81 78 75 73 87 90 108 91 76 71 61 61 61 62 47 46 44 42 52 56 69 66 58 53 50 46 43 35 31 25 21 22 20 20 20 20 17 19 20 19 19 17 17 18 18 17 16 15 15 15 16 16 16 20 17 20 31 36 31 38 44 33 30 30 49 54 57 50 45 39 34 33 39 46 39 43 38 40 50 41 44 50 37 30 26 22 20 20 18 17 16 14 13 12 11 14 16 18 20 20 33 42 34 30 35 79 85 60 50 44 50 63 74 57 55 71 65 86 111 110 87 70 53 50 57 51 50 60 51 46 41 46 43 50 46 47 41 41 36 31 22 19 18 19 20 20 20 30 40 37 41 60 64 55 57 50 44 46 41 33 36 39 42 40 40 42 43 50 50 58 51 44 51 58 60 50 41 39 39 50 50 47 41 40 32 30 37 34 33 29 26 26 30 33 40 50 70 87 83 90 100 111 100 95 90 90 98 113 110 111 113 114 110 104 110 110 103 100 104 103 92 70 60 63 53 56 80 88 80 43 34 30 29 66 62 45 49 75 60 79 84 71 82 85 74 94 100 95 97 100 96 95 95 90 80 70 90 92 94 98 92 81 69 60 48 49 54 59 69 67 60 55 53 65 63 59 54 44 42 48 50 52 55 68 60 51 59 66 75 72 61 58 67 80 77 69 62 76 76 72 68 74 77 85 86 84 90 73 63 80 88 73 62 62 81 78 85 108 105 95 83 80 85 80 85 88 90 88 79 80 100 100 106 106 100 107 103 98 100 108 120 113 109 106 106 106 102 106 100 93 90 107 118 106 84 90 114 58 50 49 50 55 61 72 115 131 131 131 132 142 165 181 176 181 182 182 181 152 124 122 181 193 172 151 131
38 41 39 51 53 60 53 52 54 60 60 71 85 93 100 80 65 51 42 55 78 108 112 92 85 86 75 69 62 74 90 115 81 68 59 60 65 67 60 62 65 60 52 44 35 30 25 24 21 20 21 23 20 20 20 19 16 18 16 15 15 15 15 15 15 15 17 19 23 21 20 26 22 20 20 21 25 29 37 47 40 40 49 48 41 47 44 54 53 50 51 59 51 53 63 59 54 39 29 29 30 35 30 22 18 19 20 18 17 15 13 12 16 18 19 20 40 67 50 50 81 49 50 54 75 89 77 75 59 66 88 80 74 107 105 97 82 112 97 90 71 81 73 62 68 78 86 70 77 70 73 66 65 59 50 49 45 37 30 19 33 47 60 42 28 36 38 52 74 70 59 52 43 43 46 50 47 47 46 49 47 52 56 52 53 52 80 70 57 49 41 39 50 51 55 51 47 40 33 30 34 33 39 40 49 50 41 29 27 26 28 40 44 55 82 90 100 110 104 111 121 120 111 120 110 107 118 112 107 105 100 110 95 112 100 107 110 107 93 80 60 75 91 82 91 93 80 53 35 46 32 32 60 75 66 56 66 66 58 58 60 65 68 70 81 85 87 90 91 92 99 100 95 88 89 90 81 93 100 84 61 52 50 60 70 70 67 70 74 67 62 66 61 52 47 46 54 62 62 68 68 76 67 56 63 66 70 77 71 60 71 81 89 82 71 69 84 86 79 72 84 91 93 90 93 90 86 70 64 88 79 66 70 67 66 76 84 90 100 93 86 90 79 85 93 103 100 96 94 93 88 88 88 88 86 87 90 100 108 115 120 119 122 120 117 117 111 109 108 102 90 90 71 93 111 100 50 50 50 54 58 67 83 110 131 122 129 156 160 159 172 179 181 181 181 181 152 149 144 202 200 190 162 132
47 45 47 46 40 50 40 39 43 47 62 60 68 61 66 54 60 52 39 45 39 57 80 77 68 60 58 66 52 60 80 63 50 64 55 47 43 58 50 40 60 61 50 41 35 32 28 23 21 20 20 21 20 19 16 14 14 15 15 16 17 18 17 17 17 20 36 30 20 16 23 35 31 31 25 24 25 33 32 36 45 50 45 43 35 30 30 39 35 40 53 58 47 51 43 42 43 38 33 29 26 24 20 19 16 15 17 15 14 12 16 22 27 37 40 53 70 96 86 90 80 90 80 83 100 103 100 88 86 80 92 107 107 113 120 120 107 123 130 112 105 100 90 95 97 105 101 87 70 67 62 50 40 43 49 40 34 30 23 19 70 72 54 47 41 56 77 89 67 54 47 41 38 50 69 68 70 67 75 70 56 52 54 59 67 67 66 67 66 58 50 46 40 39 50 40 38 34 38 44 48 54 50 49 40 31 29 27 26 28 40 80 83 70 74 93 90 90 100 118 117 112 107 104 104 110 102 96 90 102 80 90 72 80 74 80 80 76 69 71 94 92 90 92 91 77 40 38 70 60 34 35 70 86 86 86 84 80 70 71 84 78 77 90 93 94 99 96 98 101 103 100 90 86 93 88 79 87 77 70 67 53 55 59 70 80 78 84 83 71 71 67 69 58 48 57 61 61 63 72 80 72 63 59 69 64 72 81 77 70 67 80 90 89 80 71 89 90 78 86 87 90 97 100 96 83 70 70 68 90 79 68 71 74 70 70 74 87 91 99 94 89 84 90 104 104 101 98 90 90 90 93 92 90 90 87 88 92 104 114 129 139 133 140 136 126 129 128 122 107 70 78 80 119 59 53 50 50 52 57 61 80 110 126 109 100 108 129 150 161 141 150 162 172 181 178 170 152 152 222 222 222 162 132
40 35 33 34 34 32 33 43 54 55 45 43 60 59 44 37 45 60 45 35 30 38 57 58 57 54 48 47 44 38 38 35 34 34 37 35 32 40 44 36 42 57 43 39 36 30 26 24 22 21 20 18 15 14 15 16 17 17 18 42 40 36 32 28 29 34 29 20 25 20 24 40 46 37 37 37 38 36 47 52 46 44 43 36 31 28 29 28 28 32 43 48 37 34 28 25 34 47 41 34 30 27 25 21 19 15 13 11 11 15 21 38 59 89 104 110 110 87 106 97 105 110 120 114 104 75 77 78 62 58 105 100 82 80 107 120 120 130 110 84 90 100 105 120 110 90 75 60 50 45 40 39 39 33 30 32 30 25 18 25 61 49 47 40 37 52 80 57 47 48 48 38 40 50 57 67 60 57 63 60 49 42 50 52 62 54 50 50 60 63 57 50 40 41 46 44 38 50 52 58 58 53 42 35 30 27 26 27 30 42 70 97 90 93 90 100 102 101 110 120 120 113 110 102 99 102 110 103 92 100 90 91 90 97 94 85 100 92 90 90 86 83 70 70 50 40 50 74 84 68 41 35 53 72 82 81 89 90 74 81 93 93 91 92 99 102 101 101 105 109 103 94 96 102 99 97 100 98 75 59 56 59 65 68 69 80 89 88 85 75 69 63 53 50 60 67 70 73 72 77 84 78 72 62 62 74 83 90 84 78 73 80 92 99 86 80 97 94 89 88 98 100 100 91 81 71 86 87 76 72 77 80 72 74 81 83 80 80 87 88 90 100 96 108 101 98 92 92 95 100 97 97 96 101 96 98 95 93 121 130 137 142 143 144 136 118 113 80 78 80 87 129 136 60 55 50 50 51 55 59 63 70 79 86 90 98 100 112 123 130 157 171 183 194 196 195 182 171 169 221 230 200 161 141
35 30 28 28 29 35 41 45 45 41 35 36 43 47 41 31 40 57 45 33 29 29 36 45 40 47 57 52 43 40 48 40 42 40 37 33 30 30 31 27 26 27 26 26 25 24 20 20 15 15 15 15 16 17 17 18 18 17 19 24 26 25 30 38 32 26 22 23 32 29 23 27 29 32 42 46 50 59 49 42 40 33 40 41 39 34 31 28 25 32 45 40 43 31 23 27 41 39 39 31 21 20 20 20 20 14 12 12 14 17 29 46 60 75 62 66 46 37 60 51 43 48 60 54 43 42 38 40 41 43 49 53 61 77 99 114 90 90 75 60 52 76 77 108 108 90 69 62 56 50 47 45 45 40 34 25 19 19 38 60 38 30 45 35 30 38 30 29 28 28 32 29 30 30 40 50 53 43 40 50 40 39 46 47 50 60 55 50 46 47 41 39 51 57 53 46 50 47 59 61 51 40 40 37 31 28 29 40 50 60 80 100 111 110 110 102 90 90 103 117 114 116 112 118 110 116 118 110 110 113 110 103 95 100 97 96 102 100 91 90 73 60 49 80 80 60 70 86 90 70 72 90 39 39 52 77 60 68 60 90 96 101 105 108 107 107 107 109 112 110 102 110 116 113 110 104 96 90 65 62 76 78 82 80 86 92 84 85 79 74 75 62 52 61 70 76 80 83 86 82 91 86 71 70 71 83 95 96 90 81 82 93 95 101 88 88 96 106 104 97 100 100 106 100 90 73 88 99 90 80 80 90 80 82 84 92 94 91 96 95 100 108 110 105 106 100 99 104 102 102 104 104 105 101 107 118 110 93 90 90 120 82 80 79 79 79 80 102 128 135 143 142 141 59 55 52 52 55 59 70 68 72 91 94 91 99 100 110 122 130 170 180 169 208 230 232 221 218 175 170 240 210 171 161
25 25 26 27 28 32 41 54 53 40 34 30 30 34 31 28 45 57 41 32 27 25 35 34 29 36 53 54 60 58 55 55 64 55 50 39 25 37 52 53 35 30 30 29 25 22 20 15 15 15 15 16 16 17 18 18 18 18 18 19 20 23 28 35 33 28 25 24 34 31 25 25 35 38 43 43 40 55 55 46 41 31 29 29 28 29 25 24 22 27 31 34 30 24 20 28 40 25 20 19 17 15 15 14 13 13 13 15 16 16 17 19 21 24 24 24 24 24 30 40 32 29 29 30 32 39 38 40 46 52 50 69 92 100 98 90 80 73 60 58 56 46 44 52 51 55 51 52 51 47 45 40 46 39 31 25 20 37 45 23 20 20 20 20 21 23 26 26 34 35 33 30 32 32 29 33 45 40 35 42 40 45 47 54 58 62 57 67 60 50 44 44 46 61 69 59 58 52 59 62 55 51 45 30 36 47 47 38 63 95 102 109 110 100 90 77 85 90 93 100 110 120 125 121 121 123 120 120 110 100 90 76 83 87 85 96 101 100 90 90 80 47 74 90 96 80 88 95 101 95 91 80 38 40 57 50 48 49 59 73 90 100 103 109 112 115 118 122 120 119 124 121 110 100 104 100 92 73 60 66 80 86 90 93 95 87 80 81 80 79 64 57 59 75 87 88 90 92 90 93 96 82 76 86 79 88 99 97 99 81 91 100 103 102 97 90 101 110 111 108 108 102 110 103 93 81 80 82 90 90 89 96 100 99 110 110 102 110 116 121 119 119 116 114 100 99 111 108 113 110 114 113 114 123 125 131 130 118 123 129 115 131 127 130 134 138 140 132 139 142 140 131 114 59 57 54 52 59 71 98 95 77 97 105 100 110 116 127 155 163 150 137 150 165 180 233 245 216 204 193 180 240 214 227
26 23 25 25 28 33 35 35 45 51 49 36 31 28 25 26 34 40 32 25 23 35 34 25 28 32 40 32 24 25 35 49 41 33 25 21 20 21 21 21 23 21 20 21 20 19 14 15 15 16 16 17 17 18 18 19 19 19 19 19 20 25 33 41 38 34 30 35 40 29 26 28 30 40 42 38 34 31 43 50 43 43 47 43 41 38 31 24 20 19 19 19 18 17 15 17 19 18 18 17 15 13 12 14 15 16 15 16 15 16 18 19 18 20 21 21 20 19 19 20 23 28 30 32 31 36 43 39 44 63 70 104 100 77 61 53 50 70 100 82 58 52 47 39 35 38 32 42 51 44 42 42 37 31 32 30 22 19 19 20 26 28 33 35 27 33 37 29 40 46 52 45 49 43 38 32 30 37 50 53 44 50 54 56 68 66 69 80 69 56 60 50 51 62 61 52 50 50 44 43 41 40 33 39 42 61 63 50 46 58 80 95 70 70 90 90 98 110 116 110 112 120 130 125 118 111 100 104 91 77 73 70 66 72 91 83 90 98 95 81 52 70 86 100 102 99 100 104 91 90 70 40 41 47 59 80 70 50 56 80 70 80 108 112 114 123 130 130 130 130 120 113 110 105 110 110 90 91 76 66 75 80 87 100 94 86 75 76 73 70 65 61 60 67 75 72 78 86 95 100 100 87 99 87 83 92 101 104 95 100 97 95 110 110 110 101 105 101 104 110 113 108 108 98 90 87 90 95 106 100 103 104 114 113 114 120 118 121 121 112 102 103 103 100 110 118 118 114 122 120 128 127 119 137 140 143 140 131 121 133 140 143 144 140 145 150 151 145 131 121 121 119 90 70 58 55 53 70 105 111 80 90 110 109 103 109 120 142 173 201 180 175 162 210 198 194 227 254 234 210 195 190 225 260
24 20 20 20 20 20 20 27 34 49 55 45 37 31 26 25 27 35 28 22 21 21 19 19 20 20 19 19 20 20 22 25 28 24 21 20 19 20 20 20 20 20 19 19 19 16 15 14 15 15 16 16 17 18 19 19 18 18 19 19 20 24 30 28 30 36 40 48 38 30 29 37 41 41 36 31 29 31 37 30 31 40 39 37 38 36 31 28 27 30 27 21 18 17 15 13 14 15 16 17 13 13 14 15 17 19 25 22 17 15 19 26 31 35 43 44 40 32 26 21 20 20 22 23 25 30 35 37 44 63 100 110 86 66 55 50 50 42 43 42 39 39 41 49 42 38 31 34 51 43 38 33 40 35 30 24 19 19 22 32 32 29 44 39 29 43 37 32 50 58 64 69 64 51 42 37 31 35 40 39 45 57 60 63 70 77 74 70 72 70 71 65 69 72 66 60 59 60 56 50 50 40 41 53 66 64 77 80 57 53 58 60 80 100 102 107 119 119 121 121 120 127 124 118 110 110 92 80 70 71 88 88 72 70 65 63 59 65 80 54 53 80 101 104 95 92 80 90 53 45 40 59 64 49 72 101 75 58 62 74 92 97 95 97 100 110 118 120 124 130 130 123 117 111 107 99 97 95 79 80 86 93 94 93 83 80 76 70 73 65 75 76 73 69 61 74 86 92 94 99 99 91 95 95 91 92 93 110 102 111 107 102 110 112 114 116 113 112 112 119 115 111 111 100 96 103 105 114 110 120 120 121 125 130 121 117 105 103 109 103 111 121 123 121 126 126 119 128 129 131 133 133 123 133 143 150 146 140 120 133 144 150 153 153 148 154 157 144 123 107 93 87 90 70 58 55 54 90 114 119 86 125 134 133 130 131 140 175 203 209 210 208 190 202 230 250 235 257 240 219 229 213 200 230
18 18 18 19 18 17 17 18 18 29 41 42 35 31 24 23 32 30 25 19 18 18 17 17 19 19 18 19 19 20 20 20 20 19 19 19 20 19 19 19 19 20 19 19 18 14 15 15 15 15 15 15 16 17 18 17 16 17 18 18 19 20 20 21 27 35 42 50 41 37 40 40 38 37 36 35 30 27 26 29 31 32 34 32 30 28 22 25 29 25 20 18 16 14 14 14 13 12 12 14 14 16 18 18 19 22 30 25 19 17 19 20 25 30 42 52 51 41 30 25 23 22 27 29 29 29 35 44 57 80 111 100 80 64 56 53 45 49 50 49 49 47 40 30 34 35 40 31 29 29 30 27 28 20 20 25 28 35 37 44 37 40 42 31 47 50 40 32 42 44 60 71 63 60 48 41 37 39 50 46 41 50 49 57 66 73 71 69 65 61 64 61 59 61 71 74 72 76 70 64 54 39 47 62 71 90 106 70 67 98 90 70 90 84 103 120 121 111 112 110 117 122 116 113 110 101 96 90 93 90 80 88 93 100 90 61 70 80 67 70 86 93 101 107 100 93 72 48 44 54 80 85 66 57 92 107 77 59 80 90 110 120 120 112 117 120 119 130 136 134 129 121 120 120 115 100 86 71 80 80 87 112 101 95 93 90 79 84 80 70 76 86 90 70 69 91 94 88 94 110 110 103 104 109 101 103 101 105 112 111 115 110 118 120 122 126 121 125 123 126 130 128 120 110 114 117 117 126 121 120 118 110 111 117 109 102 114 114 117 113 110 122 123 130 132 132 124 131 140 137 140 140 132 136 142 142 145 144 141 140 142 146 151 158 160 161 159 127 112 110 114 110 110 73 57 55 54 121 131 130 90 124 140 141 140 142 153 185 223 235 237 240 241 230 242 273 277 272 260 246 250 237 225 217
18 19 18 18 17 17 17 17 17 18 19 19 18 18 20 24 22 18 17 17 17 17 17 17 18 18 17 17 18 19 19 19 19 18 17 17 17 18 19 20 19 19 19 17 15 14 16 16 16 16 16 16 15 15 15 15 16 16 17 17 18 18 18 19 21 25 31 39 46 47 41 39 39 36 35 35 29 27 25 24 26 29 36 35 30 28 25 22 20 17 18 16 14 14 13 15 17 13 13 14 15 17 19 21 25 29 37 28 20 20 20 20 26 30 39 50 47 41 42 30 27 25 35 44 43 37 42 64 105 130 122 98 80 74 61 54 60 60 49 45 41 41 39 41 43 36 30 36 40 46 42 40 42 32 24 32 31 35 42 48 40 52 44 34 50 57 44 37 48 53 54 65 69 53 50 44 38 40 60 57 49 50 49 53 55 62 69 70 65 66 60 56 58 66 70 80 71 63 57 50 40 39 43 60 82 114 91 81 95 110 94 90 110 110 110 120 122 110 99 115 122 115 112 106 100 92 100 101 92 98 94 101 101 82 62 94 96 96 80 94 101 105 104 95 92 65 48 50 64 86 90 90 70 66 90 111 102 66 90 107 108 121 124 121 128 131 128 130 136 133 135 128 120 108 98 83 76 83 100 92 90 104 102 105 94 92 103 91 81 95 95 94 81 70 81 83 82 91 97 101 110 114 114 116 118 119 120 116 118 121 120 125 122 131 130 130 124 124 127 130 130 128 126 123 120 114 111 113 111 110 111 120 117 114 114 110 117 120 122 128 127 121 125 128 129 131 137 131 135 140 149 145 141 145 151 149 148 148 151 146 151 151 159 162 164 143 130 125 123 131 131 127 103 60 57 55 70 129 134 130 100 116 120 114 118 127 144 144 177 197 225 250 250 230 207 209 222 234 257 280 274 267 256 229
19 19 19 18 17 17 17 17 17 17 17 17 18 18 18 18 17 17 17 17 17 17 17 17 17 17 16 16 17 18 18 18 18 17 16 16 16 15 15 15 18 19 18 15 15 16 16 17 18 18 18 18 18 17 16 15 15 15 16 16 17 18 19 21 28 35 33 32 41 47 50 50 42 35 31 28 29 30 25 23 27 29 33 31 27 24 22 20 17 15 14 14 15 16 17 20 16 15 20 20 18 17 18 20 29 39 35 24 20 29 31 32 33 33 35 40 49 58 50 37 29 25 29 33 47 49 57 93 115 121 100 110 120 117 106 80 67 62 59 51 58 50 44 59 49 39 40 49 51 55 56 48 39 32 24 31 40 48 52 50 49 53 44 40 50 60 50 40 42 50 60 60 58 60 54 43 45 53 60 63 60 59 52 59 62 70 67 61 58 57 52 59 68 60 70 83 70 66 60 41 50 61 71 78 116 116 100 113 117 113 115 118 116 118 110 120 110 90 104 115 121 117 111 110 107 113 110 98 99 110 110 102 95 64 82 106 104 108 103 100 111 109 90 74 50 47 54 90 91 110 102 81 70 77 108 120 91 90 100 100 120 131 135 135 139 139 137 131 125 124 132 124 120 101 80 88 100 102 110 104 105 100 101 110 101 117 108 93 90 102 105 97 82 75 89 99 101 105 113 113 120 129 130 131 125 130 132 130 128 129 129 131 136 133 130 128 127 124 122 122 120 120 120 120 119 114 120 120 117 117 120 123 128 121 120 121 129 128 122 131 132 130 129 138 137 133 140 142 143 141 146 151 148 145 150 153 150 153 154 150 156 160 161 165 161 140 136 132 137 134 129 127 90 58 56 57 90 132 130 124 132 132 121 139 146 168 182 185 150 155 179 187 187 199 210 218 220 240 242 228 250 291 277 259
